ncols        625
nrows        31
xllcorner    7.84554753298
yllcorner    46.6667307423
cellsize           0.000833379736
NODATA_value  0
883 902 919 932 941 961 962 945 921 889 845 796 760 750 721 688 684 693 706 712 707 695 678 661 650 628 604 584 569 562 564 565 564 562 564 566 569 567 564 565 563 564 566 566 565 565 564 565 571 563 563 563 563 563 563 563 563 563 563 563 563 563 563 563 563 563 563 563 563 563 563 563 563 563 563 563 563 563 563 563 563 563 563 563 563 563 563 563 563 563 563 563 563 563 563 563 570 578 587 600 604 622 645 676 697 718 741 769 795 829 866 895 934 962 987 1010 1032 1043 1050 1061 1079 1095 1107 1137 1176 1213 1260 1294 1323 1354 1380 1429 1438 1435 1429 1438 1447 1462 1492 1522 1527 1520 1527 1526 1515 1455 1437 1465 1444 1436 1439 1434 1414 1413 1442 1478 1499 1519 1542 1564 1594 1627 1729 1809 1890 1971 2047 2107 2159 2163 2139 2114 2092 2075 2059 2042 2021 2009 2008 2023 2045 2056 2048 2031 2012 1986 1966 1955 1958 1961 1964 1968 1961 1957 1951 1957 1964 1963 1946 1935 1928 1924 1914 1892 1878 1870 1856 1852 1844 1831 1824 1807 1784 1754 1720 1699 1689 1678 1656 1631 1624 1627 1627 1635 1696 1734 1753 1797 1859 1923 1969 2024 2065 2111 2149 2201 2235 2272 2319 2364 2403 2443 2480 2513 2546 2561 2583 2604 2618 2642 2666 2682 2705 2726 2743 2756 2758 2749 2690 2611 2589 2585 2629 2653 2661 2681 2675 2730 2761 2786 2821 2859 2869 2867 2876 2867 2837 2786 2742 2707 2690 2653 2615 2590 2566 2540 2520 2496 2474 2459 2447 2437 2430 2428 2421 2405 2390 2372 2355 2330 2306 2288 2270 2251 2236 2221 2209 2191 2165 2138 2110 2091 2090 2099 2117 2135 2142 2140 2137 2138 2136 2134 2134 2140 2140 2129 2127 2128 2135 2150 2170 2189 2217 2224 2179 2154 2141 2142 2142 2150 2162 2166 2163 2158 2150 2129 2093 2055 2036 2024 2011 1998 1976 1955 1934 1910 1897 1884 1872 1856 1833 1807 1795 1768 1742 1716 1702 1696 1685 1670 1648 1622 1600 1592 1574 1528 1492 1454 1410 1369 1336 1308 1298 1297 1301 1305 1306 1315 1331 1353 1362 1395 1427 1450 1468 1501 1531 1552 1573 1591 1609 1615 1624 1648 1682 1713 1744 1776 1807 1828 1840 1847 1862 1875 1861 1842 1848 1856 1841 1851 1897 1922 1940 1953 1972 1991 1993 1940 1893 1861 1842 1786 1761 1728 1581 1579 1554 1521 1469 1434 1388 1315 1231 1175 1131 1089 1020 978 935 910 884 855 823 800 789 795 807 832 848 858 866 872 876 871 860 848 837 818 802 784 762 726 689 690 717 732 746 767 783 812 849 894 944 994 1049 1091 1151 1204 1259 1313 1343 1474 1596 1602 1609 1636 1667 1701 1736 1786 1827 1864 1904 1948 1994 2022 2054 2090 2134 2181 2208 2239 2271 2303 2347 2377 2415 2464 2494 2490 2464 2424 2365 2314 2277 2252 2238 2228 2223 2216 2227 2257 2283 2293 2307 2324 2366 2423 2493 2527 2564 2583 2597 2594 2556 2523 2522 2553 2579 2591 2620 2664 2707 2733 2753 2765 2789 2831 2848 2839 2822 2789 2768 2742 2726 2701 2684 2676 2630 2591 2531 2487 2457 2440 2418 2399 2396 2394 2437 2415 2355 2302 2233 2178 2148 2122 2103 2084 2059 2037 2023 2019 2011 1991 1973 2004 2006 2000 2015 2020 2017 1988 1990 1990 1974 1969 1942 1885 1825 1783 1741 1713 1686 1670 1663 1662 1662 1664 1679 1706 1735 1758 1791 1817 1909
801 818 833 847 873 895 903 887 857 821 782 716 679 661 638 623 618 628 648 653 656 653 641 622 600 586 572 565 563 564 565 565 566 565 566 566 567 567 566 564 564 566 565 564 563 566 566 566 567 567 567 566 563 565 568 568 571 569 569 569 563 559 564 564 563 563 563 563 563 563 563 563 563 563 563 563 563 563 563 563 563 563 563 563 563 563 563 563 563 563 563 563 563 563 569 569 577 585 598 613 637 655 670 705 734 759 785 812 844 879 908 944 972 1005 1033 1053 1067 1072 1082 1105 1129 1147 1164 1189 1222 1258 1294 1330 1376 1428 1450 1454 1464 1470 1477 1490 1503 1518 1547 1570 1585 1589 1591 1608 1612 1673 1658 1582 1546 1525 1522 1521 1521 1518 1528 1544 1560 1574 1593 1616 1647 1665 1756 1833 1915 1999 2097 2137 2167 2174 2154 2134 2114 2094 2073 2047 2034 2039 2046 2058 2051 2042 2023 2006 1990 1978 1971 1972 1965 1959 1960 1961 1951 1942 1944 1947 1947 1941 1930 1922 1912 1904 1895 1882 1870 1858 1844 1825 1812 1804 1788 1769 1746 1721 1705 1691 1687 1676 1651 1628 1621 1624 1631 1655 1699 1721 1749 1784 1837 1902 1945 2001 2050 2090 2125 2170 2210 2245 2290 2331 2366 2399 2431 2461 2487 2512 2538 2555 2568 2588 2612 2631 2645 2665 2686 2706 2719 2734 2697 2713 2696 2633 2636 2631 2617 2617 2621 2637 2691 2739 2781 2821 2836 2848 2851 2841 2784 2727 2695 2669 2638 2606 2583 2564 2547 2534 2516 2498 2482 2469 2450 2437 2431 2429 2428 2428 2423 2404 2393 2382 2365 2342 2306 2248 2214 2192 2175 2162 2130 2100 2068 2057 2062 2074 2085 2094 2103 2108 2104 2098 2092 2089 2087 2088 2089 2089 2091 2089 2095 2104 2115 2134 2157 2181 2194 2176 2146 2140 2136 2139 2154 2155 2146 2137 2123 2104 2069 2026 1995 1980 1968 1960 1953 1940 1912 1891 1872 1855 1848 1837 1813 1784 1771 1753 1722 1691 1669 1660 1641 1628 1607 1579 1556 1541 1530 1505 1460 1412 1367 1325 1303 1298 1298 1298 1304 1313 1331 1345 1371 1394 1405 1414 1437 1464 1484 1514 1544 1573 1598 1618 1636 1653 1666 1683 1714 1745 1786 1822 1858 1885 1900 1906 1914 1921 1910 1910 1929 1934 1935 1948 1960 1982 2004 2020 2029 1973 1923 1861 1827 1781 1745 1703 1636 1567 1555 1531 1492 1459 1403 1361 1309 1204 1153 1102 1050 991 947 910 879 859 829 808 795 793 792 802 822 840 856 867 876 882 882 874 862 849 849 847 839 809 772 737 701 683 698 714 727 745 761 789 827 869 909 958 1020 1073 1126 1172 1224 1304 1328 1450 1558 1584 1590 1606 1634 1672 1710 1761 1804 1842 1876 1914 1954 1988 2021 2055 2094 2128 2164 2198 2236 2273 2311 2351 2395 2452 2485 2469 2446 2413 2357 2302 2271 2248 2230 2223 2214 2208 2205 2226 2255 2264 2273 2313 2367 2403 2441 2474 2506 2531 2525 2512 2505 2473 2466 2486 2541 2552 2566 2594 2640 2691 2710 2747 2801 2851 2879 2868 2862 2857 2842 2826 2808 2784 2769 2753 2730 2717 2655 2619 2578 2550 2519 2480 2493 2488 2502 2472 2424 2348 2391 2201 2178 2156 2142 2167 2146 2113 2093 2086 2068 2011 2085 2089 2087 2083 2072 2063 2071 2060 2048 2014 1978 1945 1891 1836 1773 1735 1706 1680 1661 1664 1670 1672 1674 1670 1667 1679 1712 1743 1782 1814 1909
705 717 751 763 773 844 839 811 777 742 676 633 611 593 580 568 574 580 587 599 607 592 583 579 572 565 565 566 564 565 566 565 567 565 565 565 566 566 565 565 567 566 565 565 566 567 567 566 565 564 564 565 565 566 566 567 567 568 569 569 566 567 568 564 563 563 563 563 563 563 563 563 563 563 563 563 563 563 563 563 563 563 563 563 563 563 563 563 563 563 563 567 575 579 584 592 596 602 618 631 651 680 704 720 741 778 814 852 884 919 954 985 1014 1038 1064 1080 1101 1117 1133 1155 1175 1201 1229 1258 1278 1290 1310 1360 1407 1442 1463 1479 1493 1505 1514 1542 1564 1581 1599 1624 1650 1662 1683 1697 1699 1678 1660 1620 1582 1562 1565 1585 1598 1606 1602 1605 1615 1626 1644 1658 1679 1707 1789 1857 1936 2063 2081 2118 2161 2182 2182 2151 2119 2095 2082 2081 2078 2074 2065 2045 2027 2011 2001 1995 1989 1982 1975 1973 1962 1951 1949 1947 1936 1928 1929 1926 1921 1914 1903 1891 1883 1877 1869 1861 1845 1830 1814 1794 1782 1774 1750 1735 1728 1721 1723 1742 1740 1728 1694 1658 1639 1644 1665 1679 1699 1716 1742 1757 1817 1903 1942 1978 2026 2060 2092 2134 2168 2212 2249 2285 2316 2347 2367 2394 2417 2440 2461 2486 2510 2529 2550 2566 2578 2601 2616 2628 2643 2639 2665 2684 2641 2607 2586 2574 2569 2567 2576 2597 2642 2697 2736 2768 2782 2799 2803 2772 2725 2679 2652 2635 2611 2589 2562 2545 2532 2528 2517 2502 2485 2471 2454 2440 2430 2431 2432 2438 2433 2416 2401 2391 2377 2359 2344 2316 2275 2209 2158 2129 2100 2067 2048 2041 2044 2048 2056 2068 2075 2073 2064 2057 2055 2050 2051 2056 2056 2051 2047 2043 2050 2060 2071 2086 2100 2120 2141 2139 2128 2133 2130 2123 2126 2121 2108 2093 2079 2062 2033 1996 1964 1941 1924 1912 1906 1900 1884 1867 1850 1839 1832 1819 1793 1753 1733 1717 1691 1662 1634 1616 1596 1583 1565 1544 1518 1497 1485 1467 1426 1380 1334 1307 1295 1297 1307 1321 1329 1337 1355 1378 1403 1422 1436 1445 1457 1477 1502 1524 1562 1598 1626 1653 1680 1702 1718 1723 1737 1766 1806 1838 1882 1917 1945 1964 1978 1987 1985 1989 1992 2008 2007 2010 2021 2042 2051 2032 1956 1892 1851 1801 1763 1724 1673 1621 1553 1519 1503 1471 1426 1393 1359 1207 1150 1155 1073 985 932 903 872 844 828 814 801 793 794 805 824 847 872 885 890 891 897 900 894 886 880 883 890 894 885 859 818 775 726 691 681 689 703 725 747 776 810 848 888 930 1008 1066 1114 1170 1224 1277 1314 1474 1555 1564 1570 1584 1610 1650 1690 1739 1774 1803 1845 1882 1919 1950 1989 2023 2054 2089 2123 2161 2203 2240 2284 2336 2387 2444 2461 2429 2407 2388 2355 2301 2266 2241 2215 2197 2191 2186 2186 2202 2222 2246 2281 2332 2366 2393 2424 2449 2473 2468 2449 2396 2427 2421 2412 2428 2493 2522 2537 2560 2590 2623 2654 2712 2759 2802 2819 2823 2812 2825 2854 2837 2800 2769 2745 2729 2726 2728 2725 2716 2693 2639 2591 2593 2575 2566 2562 2538 2557 2548 2520 2472 2416 2367 2331 2264 2250 2146 2234 2220 2201 2183 2194 2192 2173 2140 2123 2107 2097 2074 2039 1992 1943 1897 1841 1799 1749 1720 1687 1665 1662 1669 1679 1685 1682 1676 1661 1660 1691 1726 1755 1824 1910
667 669 679 688 694 698 697 687 668 630 591 574 568 567 560 563 564 566 565 562 566 568 567 568 570 568 569 567 567 568 568 568 569 569 569 567 567 566 565 566 566 566 565 565 568 569 566 565 567 566 565 566 567 569 567 568 568 567 566 568 569 570 569 563 563 563 563 563 563 563 563 563 563 563 563 563 563 563 563 563 563 563 563 563 563 563 563 563 563 563 563 573 586 594 602 610 624 636 656 659 678 711 748 771 787 817 845 875 909 945 986 1019 1046 1073 1101 1127 1149 1174 1192 1211 1228 1255 1284 1311 1331 1340 1365 1403 1425 1442 1463 1488 1520 1541 1562 1580 1609 1624 1641 1676 1711 1733 1748 1747 1718 1678 1653 1634 1631 1633 1632 1636 1652 1666 1666 1673 1678 1684 1694 1709 1724 1771 1848 1857 1927 2047 2081 2106 2150 2182 2182 2151 2117 2098 2089 2085 2076 2061 2040 2023 2008 2006 2008 2009 2002 1990 1989 1982 1964 1945 1942 1939 1930 1917 1911 1903 1893 1887 1876 1866 1853 1847 1841 1835 1820 1804 1781 1766 1756 1743 1739 1759 1784 1800 1812 1816 1804 1780 1756 1722 1698 1685 1678 1683 1704 1725 1756 1798 1906 1930 1939 1959 1992 2021 2052 2098 2134 2161 2198 2226 2254 2279 2304 2327 2346 2374 2394 2415 2438 2461 2479 2492 2505 2514 2543 2562 2577 2601 2604 2600 2580 2563 2545 2535 2537 2542 2555 2584 2642 2686 2712 2728 2741 2756 2743 2724 2680 2644 2623 2596 2577 2560 2534 2519 2507 2500 2497 2498 2491 2478 2448 2431 2425 2423 2425 2423 2413 2397 2383 2364 2348 2336 2319 2301 2280 2260 2186 2128 2100 2053 2034 2030 2037 2040 2049 2062 2070 2067 2054 2041 2031 2032 2032 2026 2022 2014 2008 2012 2018 2023 2030 2042 2053 2067 2078 2081 2082 2098 2099 2090 2082 2071 2057 2047 2036 2021 2002 1971 1941 1914 1894 1877 1864 1859 1852 1834 1826 1815 1800 1782 1763 1726 1691 1670 1651 1632 1605 1577 1561 1547 1529 1509 1481 1450 1432 1416 1388 1340 1306 1300 1300 1303 1312 1322 1333 1347 1366 1389 1415 1438 1457 1469 1488 1517 1542 1557 1580 1610 1646 1680 1704 1737 1757 1768 1779 1798 1825 1870 1908 1946 1981 2011 2036 2056 2073 2088 2090 2064 2086 2080 2086 2074 1998 1915 1870 1813 1770 1740 1701 1662 1600 1537 1484 1462 1444 1402 1323 1206 1141 1081 1029 986 900 892 872 839 825 816 809 803 799 800 816 831 858 880 898 905 905 918 929 928 921 914 912 911 908 905 900 882 852 814 758 712 687 678 690 714 738 757 792 824 865 910 994 1054 1110 1153 1205 1254 1302 1412 1515 1538 1547 1564 1595 1637 1676 1714 1743 1777 1819 1854 1886 1922 1952 1990 2026 2061 2109 2144 2197 2229 2275 2317 2375 2445 2426 2392 2358 2333 2313 2279 2244 2224 2202 2185 2179 2176 2172 2180 2191 2219 2274 2315 2343 2375 2420 2454 2465 2411 2358 2352 2358 2366 2374 2392 2442 2474 2507 2531 2551 2580 2605 2651 2703 2747 2765 2762 2772 2784 2843 2865 2828 2780 2750 2716 2696 2692 2696 2709 2717 2711 2724 2652 2629 2620 2622 2633 2647 2653 2634 2588 2531 2482 2445 2415 2386 2363 2344 2323 2296 2267 2241 2208 2198 2175 2150 2130 2098 2058 2013 1961 1917 1869 1823 1782 1748 1717 1689 1676 1677 1681 1687 1690 1690 1682 1665 1661 1681 1716 1733 1853 1907
613 613 603 611 606 610 598 591 573 570 568 565 563 568 568 568 567 566 568 567 568 569 570 571 568 565 566 568 569 568 567 564 564 568 570 569 568 567 566 566 566 567 566 566 568 568 567 569 568 567 567 567 569 569 568 569 568 568 569 570 569 567 566 563 563 563 563 563 563 563 563 563 563 570 564 566 563 563 563 563 563 563 563 563 563 563 563 563 563 563 579 596 620 631 629 637 646 664 697 710 718 748 789 826 857 887 895 909 943 977 1009 1045 1072 1106 1138 1168 1196 1223 1247 1269 1288 1320 1351 1368 1388 1408 1427 1444 1453 1466 1489 1526 1572 1593 1606 1616 1642 1662 1688 1724 1747 1780 1794 1796 1772 1748 1717 1712 1713 1699 1690 1695 1712 1718 1723 1731 1732 1730 1751 1777 1813 1839 1850 1878 1934 2015 2062 2094 2154 2183 2181 2156 2132 2107 2088 2075 2061 2044 2026 2020 2018 2021 2021 2022 2018 2011 2001 1984 1961 1945 1936 1923 1912 1901 1893 1889 1874 1863 1853 1844 1841 1838 1832 1820 1803 1781 1764 1756 1760 1783 1812 1832 1840 1838 1847 1849 1825 1788 1754 1727 1708 1699 1695 1710 1725 1756 1791 1845 1890 1917 1929 1945 1970 1991 2017 2050 2086 2118 2146 2176 2202 2225 2251 2273 2293 2311 2337 2359 2381 2403 2417 2424 2435 2454 2471 2497 2535 2560 2567 2542 2527 2517 2512 2512 2520 2537 2561 2607 2653 2675 2689 2703 2720 2727 2712 2687 2663 2635 2614 2588 2564 2542 2523 2505 2475 2462 2460 2474 2476 2465 2443 2425 2417 2415 2409 2399 2391 2376 2362 2344 2321 2308 2293 2283 2256 2235 2189 2141 2111 2063 2030 2022 2026 2033 2045 2052 2055 2049 2039 2031 2023 2016 2009 2003 1989 1986 1985 1985 1985 1987 1989 1996 2007 2013 2025 2026 2027 2045 2054 2050 2040 2029 2019 2011 2001 1987 1968 1939 1915 1890 1869 1850 1833 1820 1809 1793 1785 1778 1764 1741 1717 1688 1654 1627 1615 1602 1576 1544 1526 1516 1504 1490 1461 1425 1401 1377 1339 1311 1302 1299 1299 1306 1319 1335 1344 1359 1380 1411 1437 1458 1486 1515 1540 1561 1578 1598 1616 1634 1656 1690 1721 1754 1779 1801 1824 1842 1868 1916 1948 1991 2026 2061 2092 2124 2149 2176 2172 2179 2179 2121 1949 1949 1901 1845 1799 1750 1710 1682 1645 1602 1533 1487 1449 1420 1383 1259 1048 967 915 961 860 864 858 846 822 811 809 802 803 802 802 818 842 862 887 911 930 937 938 959 973 971 957 947 936 921 907 905 903 892 867 841 800 737 692 681 687 702 721 746 776 813 852 907 977 1035 1089 1145 1192 1243 1297 1376 1462 1498 1515 1546 1585 1623 1661 1696 1725 1764 1801 1833 1870 1904 1931 1966 2005 2047 2092 2138 2194 2239 2277 2308 2346 2377 2388 2347 2311 2288 2252 2225 2209 2192 2182 2171 2171 2178 2177 2176 2177 2199 2257 2304 2339 2363 2400 2419 2416 2374 2331 2312 2310 2328 2342 2358 2417 2458 2491 2516 2531 2554 2568 2608 2651 2672 2695 2720 2746 2764 2838 2852 2844 2806 2761 2725 2698 2677 2672 2678 2679 2675 2673 2671 2640 2639 2646 2676 2699 2726 2714 2673 2606 2564 2529 2513 2487 2466 2434 2415 2366 2325 2284 2229 2200 2174 2141 2108 2076 2042 2006 1959 1921 1882 1837 1794 1765 1727 1696 1682 1684 1689 1694 1698 1697 1689 1667 1664 1687 1721 1746 1771 1932
584 580 577 577 574 571 569 564 564 563 565 565 565 565 567 569 568 566 566 569 571 574 568 568 568 567 568 569 568 567 566 566 565 566 566 567 568 568 566 566 566 568 568 568 568 568 568 569 567 567 567 568 568 568 568 569 568 570 568 566 567 566 567 566 568 569 566 567 569 570 572 570 571 579 577 575 575 570 567 566 564 568 569 572 573 570 568 575 584 594 610 634 660 674 669 672 681 691 728 760 775 780 813 852 894 934 945 936 956 987 1022 1059 1094 1122 1159 1190 1228 1253 1291 1312 1335 1373 1399 1428 1452 1468 1489 1492 1490 1505 1545 1582 1608 1632 1647 1663 1685 1720 1744 1763 1785 1821 1853 1870 1862 1851 1840 1820 1797 1786 1770 1752 1757 1764 1774 1792 1807 1829 1835 1841 1844 1849 1862 1891 1907 2018 2070 2118 2162 2200 2203 2181 2148 2113 2084 2066 2052 2040 2037 2036 2037 2032 2031 2025 2015 2003 1990 1975 1956 1934 1917 1903 1896 1887 1883 1875 1858 1843 1835 1835 1831 1825 1820 1800 1788 1787 1803 1820 1846 1847 1850 1863 1874 1884 1899 1899 1880 1846 1809 1777 1757 1746 1734 1736 1742 1768 1797 1827 1864 1884 1901 1913 1933 1965 1990 2022 2043 2073 2105 2125 2146 2177 2198 2220 2234 2253 2271 2293 2319 2339 2356 2367 2380 2400 2422 2451 2495 2522 2516 2498 2493 2491 2494 2505 2521 2538 2564 2603 2646 2665 2679 2691 2708 2707 2687 2665 2648 2634 2614 2596 2578 2562 2540 2519 2481 2444 2442 2459 2466 2468 2471 2463 2442 2426 2401 2381 2370 2362 2348 2330 2305 2289 2281 2263 2242 2216 2178 2152 2127 2080 2044 2021 2016 2018 2023 2026 2023 2018 2012 2009 2003 2002 2005 2014 2015 2007 1986 1968 1940 1915 1926 1935 1951 1957 1970 1974 1982 2001 2016 2014 2004 1987 1981 1973 1963 1955 1934 1909 1888 1870 1844 1827 1809 1788 1772 1758 1746 1738 1722 1700 1675 1649 1618 1594 1584 1571 1556 1531 1504 1481 1475 1468 1436 1400 1370 1343 1316 1304 1303 1300 1303 1313 1329 1343 1365 1385 1415 1453 1479 1508 1533 1560 1584 1607 1622 1635 1657 1674 1689 1711 1737 1767 1795 1823 1852 1887 1925 1967 2000 2050 2088 2129 2163 2189 2220 2243 2224 2200 2210 2118 1911 1878 1820 1772 1731 1676 1650 1610 1579 1532 1483 1445 1415 1361 1268 1103 944 895 856 848 842 837 825 812 806 806 804 803 802 810 830 854 878 902 931 947 958 970 986 1000 1017 1023 1008 985 968 948 928 912 906 902 870 830 800 756 702 686 688 698 717 747 786 821 855 899 957 1019 1077 1128 1174 1225 1279 1335 1404 1456 1484 1534 1577 1615 1652 1692 1726 1762 1798 1827 1850 1884 1917 1957 2001 2039 2082 2131 2183 2221 2262 2302 2297 2304 2326 2280 2259 2237 2203 2179 2169 2162 2155 2143 2155 2182 2180 2171 2165 2199 2259 2295 2325 2349 2380 2394 2382 2335 2294 2278 2276 2287 2302 2329 2399 2433 2462 2488 2503 2516 2538 2560 2592 2619 2651 2670 2711 2738 2795 2796 2788 2771 2740 2706 2681 2667 2655 2653 2646 2629 2618 2616 2612 2608 2608 2623 2641 2689 2693 2688 2622 2602 2587 2531 2477 2435 2393 2361 2334 2303 2270 2225 2198 2160 2127 2101 2083 2056 2016 1980 1946 1912 1870 1827 1789 1747 1712 1694 1688 1694 1699 1704 1706 1698 1684 1679 1690 1716 1755 1782 1861
578 575 573 572 571 571 565 562 561 564 565 567 567 567 566 568 569 566 566 567 569 571 571 571 567 567 567 568 568 567 566 567 567 567 566 566 567 567 567 567 567 566 567 568 568 569 569 569 568 567 566 568 570 570 569 569 569 569 568 567 566 567 569 573 574 574 575 576 578 579 584 590 589 592 596 595 593 586 578 575 575 579 594 601 597 589 591 609 626 648 665 689 711 729 732 721 704 717 743 793 830 840 830 838 884 933 969 976 969 992 1031 1072 1103 1139 1177 1218 1250 1288 1320 1346 1381 1418 1451 1473 1507 1540 1552 1550 1537 1547 1570 1603 1633 1673 1709 1730 1748 1775 1804 1834 1860 1885 1913 1946 1964 1944 1927 1900 1872 1853 1842 1819 1829 1838 1849 1853 1853 1851 1845 1835 1834 1844 1858 1926 1981 2050 2094 2123 2157 2184 2199 2186 2158 2123 2091 2075 2065 2057 2053 2049 2047 2039 2027 2012 1994 1984 1973 1958 1938 1920 1904 1894 1888 1872 1865 1854 1844 1834 1825 1820 1821 1818 1816 1817 1853 1872 1880 1884 1891 1895 1906 1926 1937 1941 1950 1942 1920 1898 1864 1847 1828 1844 1802 1771 1773 1764 1775 1792 1821 1854 1865 1882 1900 1922 1952 1978 2016 2042 2057 2080 2106 2123 2146 2165 2187 2196 2218 2245 2266 2286 2300 2317 2339 2365 2402 2428 2461 2473 2464 2467 2475 2483 2495 2507 2526 2550 2585 2621 2645 2661 2673 2687 2694 2700 2699 2684 2671 2680 2623 2613 2597 2578 2564 2518 2469 2441 2429 2441 2454 2457 2457 2445 2420 2407 2389 2367 2346 2336 2322 2299 2279 2266 2252 2235 2216 2196 2171 2148 2117 2081 2048 2024 2013 2006 2004 2009 2003 2002 2002 2008 2008 2006 2005 2004 2000 1986 1965 1936 1895 1868 1856 1868 1878 1892 1913 1925 1936 1956 1975 1978 1970 1956 1943 1929 1914 1906 1900 1884 1865 1848 1826 1805 1786 1762 1744 1727 1708 1695 1683 1660 1640 1616 1578 1554 1546 1547 1537 1517 1492 1459 1440 1427 1393 1364 1342 1334 1322 1314 1307 1307 1316 1327 1349 1365 1389 1417 1452 1489 1525 1562 1590 1614 1635 1651 1668 1688 1704 1719 1733 1750 1779 1809 1835 1874 1928 1973 1999 2037 2089 2113 2166 2200 2240 2269 2292 2274 2239 2200 2116 2020 1874 1817 1740 1692 1641 1597 1564 1536 1500 1477 1437 1413 1351 1232 1163 1062 875 836 839 819 815 815 807 807 809 808 804 807 817 836 862 892 917 940 964 974 989 1008 1027 1041 1065 1072 1055 1030 1004 987 969 951 932 923 896 853 825 763 720 700 696 701 728 779 834 871 881 903 942 1004 1055 1108 1152 1196 1252 1307 1358 1408 1453 1502 1536 1578 1628 1669 1705 1744 1782 1807 1832 1868 1905 1939 1982 2017 2062 2112 2157 2198 2222 2235 2233 2241 2232 2219 2198 2178 2139 2129 2114 2101 2096 2097 2128 2159 2152 2146 2151 2210 2253 2281 2307 2330 2351 2359 2341 2303 2270 2254 2249 2254 2269 2291 2355 2398 2424 2450 2468 2481 2500 2524 2534 2570 2610 2628 2664 2708 2754 2758 2745 2738 2715 2690 2665 2644 2635 2633 2634 2632 2615 2597 2590 2586 2585 2584 2583 2591 2597 2598 2581 2573 2542 2474 2431 2397 2364 2334 2312 2284 2256 2220 2192 2168 2147 2121 2089 2058 2032 2003 1979 1950 1908 1862 1826 1771 1734 1708 1695 1697 1705 1716 1718 1715 1705 1701 1709 1720 1747 1783 1797
576 574 574 572 571 569 564 564 563 563 566 568 570 573 573 571 567 566 567 565 567 570 569 569 569 569 568 570 569 569 567 568 567 567 566 566 567 567 568 568 567 566 565 566 568 570 569 567 565 564 567 568 569 569 568 569 568 568 570 569 568 573 577 580 584 585 587 588 590 590 593 600 601 603 607 606 606 603 595 588 591 594 608 616 626 636 648 665 683 700 731 759 783 801 809 792 747 744 772 785 830 880 882 868 875 918 960 990 1007 1011 1043 1078 1116 1162 1210 1259 1294 1322 1348 1369 1409 1457 1502 1536 1585 1625 1625 1600 1593 1597 1620 1671 1722 1762 1799 1803 1797 1818 1857 1893 1933 1968 1991 2006 2004 1989 1964 1946 1930 1916 1897 1880 1871 1867 1862 1855 1848 1842 1835 1826 1835 1860 1901 1962 2026 2050 2079 2107 2144 2173 2194 2195 2166 2131 2109 2095 2081 2071 2064 2056 2048 2031 2012 1993 1980 1968 1954 1937 1924 1917 1899 1878 1864 1850 1847 1842 1843 1845 1843 1838 1860 1879 1893 1916 1921 1918 1925 1933 1943 1956 1973 1979 1979 1983 1984 1977 1956 1932 1920 1919 1921 1915 1910 1883 1844 1799 1777 1774 1793 1819 1840 1855 1869 1891 1917 1937 1969 1988 2011 2031 2059 2079 2102 2132 2148 2155 2172 2204 2231 2244 2259 2283 2318 2346 2391 2421 2439 2454 2460 2470 2479 2496 2513 2528 2563 2588 2616 2639 2653 2668 2679 2681 2693 2724 2751 2801 2777 2751 2715 2683 2682 2631 2593 2566 2445 2421 2409 2411 2406 2407 2411 2396 2380 2380 2366 2349 2331 2312 2293 2275 2255 2240 2224 2208 2185 2166 2144 2125 2096 2067 2044 2030 2023 2016 2013 2016 2010 2005 2002 1996 1987 1980 1968 1955 1946 1936 1919 1898 1857 1817 1805 1812 1824 1836 1856 1890 1902 1916 1930 1934 1935 1925 1912 1888 1869 1858 1848 1839 1832 1816 1794 1772 1759 1739 1719 1700 1679 1666 1645 1617 1593 1565 1537 1512 1505 1507 1499 1479 1457 1429 1408 1403 1388 1370 1363 1369 1369 1340 1309 1317 1331 1348 1365 1381 1409 1441 1482 1522 1557 1590 1630 1653 1678 1702 1725 1740 1756 1777 1794 1805 1835 1878 1929 1979 2030 2059 2060 2070 2142 2203 2249 2284 2332 2352 2344 2291 2241 2137 2047 1952 1804 1739 1690 1620 1562 1537 1504 1458 1432 1410 1390 1317 1193 1160 1102 1004 888 827 821 819 818 813 806 809 806 808 816 828 845 871 899 931 961 983 994 1008 1029 1047 1060 1081 1107 1126 1115 1090 1056 1032 1011 985 958 939 913 874 842 798 745 722 730 754 789 857 876 876 884 907 941 990 1041 1086 1134 1178 1221 1274 1337 1390 1417 1460 1499 1547 1604 1658 1692 1724 1755 1785 1814 1849 1888 1937 1978 2013 2057 2093 2127 2154 2169 2170 2174 2160 2152 2137 2124 2121 2079 2068 2055 2044 2039 2035 2069 2102 2113 2115 2130 2174 2209 2243 2279 2313 2325 2339 2319 2290 2256 2237 2225 2226 2243 2273 2326 2362 2394 2424 2444 2456 2475 2493 2514 2539 2575 2596 2629 2697 2744 2735 2711 2701 2690 2680 2656 2635 2618 2613 2605 2607 2609 2592 2574 2566 2558 2556 2546 2534 2523 2503 2514 2495 2465 2432 2407 2380 2355 2324 2284 2245 2220 2195 2174 2161 2140 2112 2086 2077 2063 2033 2002 1989 1961 1924 1860 1807 1774 1732 1710 1712 1715 1724 1728 1730 1725 1721 1731 1736 1746 1797 1848
575 573 572 570 571 569 563 564 566 566 567 568 571 573 571 567 567 566 568 567 568 569 570 569 568 570 571 570 570 569 568 569 568 569 567 568 567 567 568 569 569 568 570 572 570 568 569 568 565 565 566 568 569 568 568 570 570 569 570 572 575 577 582 588 592 597 597 599 601 604 613 618 616 620 622 625 626 623 618 609 608 618 642 651 657 671 693 728 756 782 810 833 845 860 869 851 793 770 784 801 819 871 914 927 920 926 954 994 1034 1056 1061 1089 1128 1194 1273 1322 1348 1365 1391 1422 1489 1523 1573 1637 1693 1692 1664 1657 1658 1685 1769 1798 1822 1826 1839 1849 1854 1870 1909 1953 1986 2004 2026 2053 2085 2052 1993 1972 1954 1933 1906 1879 1867 1861 1856 1850 1841 1832 1837 1852 1916 1954 1997 2016 2021 2035 2073 2117 2148 2175 2193 2199 2175 2154 2141 2133 2115 2096 2082 2065 2040 2018 1995 1974 1964 1956 1947 1932 1920 1905 1878 1855 1856 1859 1862 1863 1874 1899 1922 1934 1932 1949 1965 1980 1984 1982 1983 1982 1990 1993 1999 2003 2004 2010 2011 2004 1991 1973 1957 1954 1944 1938 1946 1943 1918 1876 1827 1798 1795 1799 1820 1836 1854 1868 1879 1901 1923 1937 1951 1971 2006 2042 2077 2104 2117 2127 2144 2175 2205 2223 2244 2277 2318 2354 2388 2417 2439 2468 2487 2494 2506 2528 2551 2574 2594 2606 2623 2635 2641 2649 2657 2678 2711 2766 2826 2888 2894 2835 2772 2725 2687 2633 2580 2534 2487 2447 2392 2382 2370 2361 2351 2341 2333 2341 2346 2346 2331 2312 2286 2264 2247 2228 2209 2192 2168 2146 2126 2119 2112 2095 2084 2068 2060 2045 2046 2047 2035 2028 2005 1987 1967 1950 1932 1914 1898 1886 1877 1857 1828 1798 1786 1780 1782 1794 1815 1846 1861 1873 1882 1890 1895 1892 1882 1861 1839 1815 1801 1791 1782 1772 1759 1734 1716 1704 1694 1683 1665 1642 1610 1580 1548 1527 1503 1478 1471 1466 1456 1433 1417 1413 1422 1424 1411 1407 1411 1407 1390 1340 1323 1340 1351 1383 1397 1418 1455 1493 1521 1550 1572 1600 1644 1680 1712 1740 1765 1791 1812 1846 1874 1895 1939 1987 2020 2054 2072 2093 2114 2156 2211 2271 2343 2384 2425 2418 2346 2306 2173 2066 1964 1874 1791 1697 1657 1574 1511 1468 1422 1390 1376 1354 1265 1187 1159 1121 1035 831 820 817 819 818 819 809 809 808 811 825 845 863 886 915 949 983 1013 1030 1043 1051 1066 1084 1105 1146 1149 1248 1193 1169 1118 1081 1043 1008 976 949 920 887 856 811 769 734 744 783 824 862 864 868 895 927 950 981 1018 1068 1113 1155 1199 1253 1315 1356 1381 1417 1463 1520 1569 1614 1654 1694 1740 1777 1794 1830 1879 1924 1955 1978 2025 2057 2085 2106 2101 2102 2089 2066 2065 2069 2047 2025 2014 2004 1999 1989 1983 1986 2009 2030 2055 2067 2102 2140 2175 2214 2250 2280 2289 2318 2308 2284 2253 2235 2227 2218 2228 2260 2312 2345 2383 2410 2428 2442 2460 2487 2538 2603 2628 2635 2685 2716 2744 2757 2716 2680 2660 2645 2623 2592 2568 2553 2549 2553 2565 2565 2555 2542 2529 2523 2510 2492 2476 2462 2444 2439 2420 2404 2387 2359 2331 2297 2255 2227 2212 2188 2149 2129 2111 2095 2100 2099 2072 2045 2035 2044 2018 1971 1907 1852 1816 1778 1747 1731 1728 1735 1743 1744 1743 1743 1745 1750 1753 1776 1811
572 572 570 568 568 566 563 562 565 566 567 569 570 569 566 565 567 568 570 572 571 573 572 572 571 570 570 570 570 571 570 570 568 570 568 567 568 568 569 570 570 568 568 568 568 568 568 567 567 568 569 569 570 570 570 570 572 570 572 577 581 585 588 598 606 611 611 618 621 631 638 632 631 635 639 642 643 639 632 621 624 646 671 687 688 692 727 772 807 843 871 883 893 902 905 891 854 815 811 843 853 861 907 951 966 956 959 1003 1048 1097 1113 1134 1176 1219 1271 1328 1376 1417 1451 1555 1572 1639 1702 1724 1724 1714 1716 1762 1818 1861 1858 1872 1891 1886 1889 1901 1930 1957 1980 1993 2010 2034 2075 2119 2130 2115 2114 2078 2017 1980 1950 1901 1883 1867 1878 1889 1914 1932 1972 1981 1991 1992 2001 2005 2006 2024 2087 2122 2136 2150 2169 2197 2215 2209 2182 2153 2131 2107 2087 2057 2026 1999 1979 1964 1960 1959 1946 1927 1904 1889 1875 1867 1878 1885 1912 1937 1959 1966 1971 1972 1984 2002 2015 2025 2018 2005 1994 2003 2011 2009 2016 2024 2031 2030 2021 2020 2017 2012 2000 1993 1986 1988 1984 1980 1978 1945 1905 1875 1855 1836 1835 1839 1849 1861 1883 1896 1904 1914 1924 1932 1958 1995 2045 2080 2102 2124 2148 2178 2212 2238 2261 2294 2322 2359 2392 2418 2456 2484 2509 2519 2535 2553 2571 2584 2588 2600 2610 2616 2627 2649 2674 2722 2766 2813 2839 2878 2842 2779 2735 2698 2656 2588 2533 2494 2466 2430 2373 2354 2335 2317 2300 2288 2284 2283 2288 2305 2320 2327 2325 2303 2294 2270 2249 2233 2217 2193 2180 2176 2168 2153 2143 2121 2116 2102 2095 2093 2086 2080 2055 2027 1996 1966 1942 1922 1902 1884 1860 1842 1821 1797 1782 1771 1765 1760 1770 1791 1818 1836 1843 1849 1851 1851 1844 1832 1817 1794 1770 1752 1739 1729 1714 1696 1672 1664 1667 1664 1649 1616 1591 1564 1536 1512 1489 1466 1453 1443 1430 1415 1410 1410 1412 1408 1401 1402 1392 1380 1355 1338 1363 1380 1395 1415 1434 1470 1514 1548 1570 1584 1609 1638 1668 1704 1735 1775 1806 1839 1882 1927 1967 2004 2028 2030 2029 2047 2055 2124 2159 2206 2266 2332 2387 2422 2458 2403 2322 2214 2103 1987 1883 1798 1724 1657 1598 1545 1475 1453 1380 1345 1287 1197 1163 1134 1095 1001 860 822 821 820 820 816 811 812 812 816 832 857 885 911 940 970 999 1029 1050 1063 1071 1083 1102 1121 1155 1184 1475 1429 1393 1334 1265 1164 1100 1053 1010 979 945 911 875 834 786 743 734 756 795 825 829 840 880 930 960 984 1017 1048 1081 1125 1176 1219 1275 1315 1341 1385 1438 1497 1541 1581 1619 1674 1734 1766 1781 1810 1859 1875 1897 1921 1968 1992 2022 2037 2038 2035 2024 2014 2008 2007 1980 1962 1950 1943 1944 1946 1947 1949 1959 1977 2004 2041 2086 2122 2160 2196 2206 2262 2286 2315 2290 2283 2262 2236 2217 2209 2212 2241 2293 2334 2371 2389 2402 2421 2439 2479 2570 2608 2653 2697 2742 2767 2764 2762 2746 2706 2665 2619 2580 2548 2516 2497 2486 2485 2503 2512 2516 2509 2495 2472 2457 2432 2416 2402 2398 2391 2376 2360 2337 2312 2294 2276 2259 2243 2233 2205 2149 2120 2114 2117 2127 2131 2128 2106 2086 2085 2067 2027 1963 1902 1850 1809 1779 1752 1746 1749 1752 1754 1757 1756 1757 1763 1763 1775 1800
571 570 568 566 565 566 566 568 568 568 568 569 570 571 570 573 573 572 570 571 571 573 575 575 572 570 569 571 571 573 574 570 568 568 569 569 569 568 570 571 570 567 567 567 567 568 568 568 567 567 569 570 570 571 571 570 569 570 576 581 588 594 602 607 615 629 635 629 633 641 654 652 648 650 653 655 653 647 657 665 663 674 702 720 713 715 757 800 836 888 919 934 935 939 945 932 901 861 840 862 894 893 902 939 970 974 990 1026 1112 1158 1187 1201 1221 1248 1291 1352 1412 1464 1514 1568 1645 1721 1758 1756 1770 1799 1845 1877 1892 1906 1920 1939 1962 1971 1968 1976 1989 2006 2024 2043 2065 2111 2146 2137 2114 2113 2122 2108 2089 2064 2046 2039 2026 2013 2007 1992 1984 1981 1984 1991 1991 1988 1991 1993 2002 2037 2081 2099 2112 2130 2155 2199 2265 2269 2210 2165 2134 2111 2091 2059 2026 1997 1977 1964 1965 1959 1946 1931 1911 1897 1888 1913 1946 1966 1992 2008 2014 2007 2014 2024 2034 2045 2044 2031 2021 2015 2021 2037 2035 2038 2045 2047 2045 2036 2029 2027 2029 2033 2031 2019 2020 2023 2022 2016 2010 1993 1966 1938 1919 1905 1871 1861 1867 1880 1902 1907 1907 1918 1927 1942 1962 1994 2042 2082 2110 2136 2162 2194 2223 2247 2269 2310 2353 2390 2419 2451 2484 2507 2529 2538 2548 2554 2565 2570 2578 2591 2596 2614 2634 2670 2696 2730 2750 2780 2800 2819 2789 2736 2703 2682 2669 2566 2510 2466 2429 2400 2359 2325 2301 2281 2257 2240 2225 2222 2227 2239 2255 2285 2308 2343 2357 2336 2318 2296 2281 2253 2228 2210 2188 2175 2164 2155 2146 2144 2131 2128 2126 2118 2100 2081 2064 2029 1996 1979 1954 1921 1899 1871 1844 1819 1795 1769 1751 1739 1740 1750 1767 1797 1803 1807 1812 1813 1810 1803 1790 1774 1755 1737 1720 1699 1675 1657 1638 1634 1635 1635 1619 1591 1567 1547 1523 1494 1471 1452 1439 1431 1421 1410 1409 1408 1404 1397 1398 1380 1352 1337 1332 1358 1386 1411 1426 1440 1463 1490 1526 1555 1589 1622 1663 1694 1734 1767 1805 1853 1898 1934 1996 2040 2046 2073 2071 2115 2126 2139 2157 2178 2206 2248 2306 2370 2415 2424 2400 2338 2247 2138 2024 1912 1813 1732 1662 1597 1542 1553 1486 1430 1325 1274 1192 1131 1090 1046 963 859 826 822 824 822 824 821 816 815 814 832 857 888 921 953 983 1009 1034 1053 1068 1087 1106 1129 1147 1163 1184 1521 1518 1501 1467 1424 1372 1248 1181 1116 1041 1006 972 943 919 897 869 802 757 740 736 755 773 793 820 873 921 979 1013 1018 1034 1085 1139 1193 1244 1274 1305 1354 1405 1455 1504 1538 1578 1637 1703 1737 1766 1787 1810 1810 1816 1840 1894 1925 1951 1972 1967 1968 1960 1951 1948 1929 1911 1910 1908 1900 1901 1909 1913 1923 1939 1960 2010 2051 2100 2147 2174 2198 2227 2259 2283 2279 2259 2253 2236 2209 2187 2179 2195 2227 2276 2316 2348 2372 2388 2406 2438 2502 2556 2596 2643 2683 2735 2751 2726 2696 2683 2692 2684 2628 2585 2534 2489 2455 2437 2426 2434 2454 2464 2461 2443 2420 2401 2381 2360 2346 2331 2329 2316 2301 2292 2277 2266 2260 2253 2236 2218 2193 2164 2139 2135 2140 2148 2143 2134 2115 2098 2084 2058 2021 1976 1937 1888 1851 1812 1773 1761 1761 1766 1770 1770 1770 1775 1773 1771 1780 1805
568 567 567 565 563 561 562 566 568 567 569 569 570 572 571 571 571 572 571 573 573 572 574 573 572 572 572 573 573 574 574 572 571 571 569 570 571 571 571 570 571 569 567 569 569 570 569 571 570 569 569 570 570 572 570 568 569 573 581 589 596 603 613 624 631 642 652 641 645 652 664 664 663 664 662 660 659 664 691 718 724 722 740 766 756 739 760 804 850 896 938 982 998 1000 992 972 934 902 892 899 928 949 950 964 996 1006 1043 1100 1144 1192 1219 1249 1264 1274 1293 1375 1442 1502 1559 1611 1665 1721 1769 1800 1872 1883 1881 1889 1910 1941 1977 2010 2029 2035 2036 2019 2024 2036 2072 2128 2166 2174 2151 2122 2097 2098 2100 2093 2084 2077 2072 2066 2053 2042 2027 2012 1993 1978 1975 1978 1981 1979 1975 1988 2014 2043 2061 2080 2101 2127 2167 2205 2301 2310 2262 2175 2150 2131 2105 2076 2050 2020 1993 1976 1970 1963 1960 1953 1943 2007 1976 1997 2014 2030 2039 2046 2056 2058 2070 2087 2094 2107 2084 2065 2054 2056 2066 2074 2069 2071 2091 2091 2071 2059 2051 2048 2051 2059 2062 2054 2055 2057 2046 2038 2036 2026 2007 1986 1967 1949 1921 1901 1891 1903 1916 1931 1934 1939 1952 1976 2005 2043 2093 2120 2141 2160 2186 2216 2238 2261 2301 2339 2383 2410 2440 2475 2504 2523 2535 2541 2544 2547 2553 2566 2575 2599 2616 2623 2612 2624 2645 2671 2689 2724 2758 2760 2737 2702 2666 2647 2633 2572 2521 2470 2426 2376 2344 2315 2290 2259 2233 2209 2190 2183 2181 2189 2208 2231 2252 2286 2346 2360 2333 2312 2295 2275 2251 2227 2205 2184 2173 2163 2155 2159 2161 2160 2157 2137 2116 2102 2088 2071 2059 2046 2027 1993 1958 1914 1881 1848 1818 1781 1749 1723 1712 1718 1739 1752 1766 1777 1781 1782 1781 1774 1763 1753 1738 1719 1699 1670 1643 1615 1594 1596 1601 1597 1587 1571 1548 1528 1502 1470 1446 1435 1422 1415 1411 1406 1401 1403 1407 1393 1374 1347 1333 1341 1366 1401 1434 1444 1452 1467 1492 1518 1553 1588 1615 1663 1711 1749 1788 1828 1873 1914 1972 1968 2020 2077 2127 2164 2188 2203 2212 2226 2243 2260 2278 2305 2345 2387 2408 2390 2355 2316 2166 2056 1948 1847 1757 1679 1608 1537 1474 1425 1474 1317 1247 1147 1103 1060 1018 929 846 832 827 822 822 821 821 821 821 816 823 845 881 911 941 977 1012 1045 1074 1093 1098 1115 1141 1170 1195 1209 1324 1422 1556 1562 1551 1515 1461 1392 1304 1212 1101 1052 1020 996 964 941 912 881 845 821 777 761 755 747 757 803 845 893 948 978 1002 1042 1093 1161 1202 1241 1284 1327 1376 1423 1452 1493 1539 1597 1654 1689 1730 1740 1746 1744 1743 1756 1812 1843 1867 1894 1895 1891 1897 1897 1899 1892 1876 1872 1870 1869 1873 1881 1892 1912 1940 1982 2034 2080 2119 2139 2159 2196 2252 2270 2300 2253 2221 2201 2176 2156 2147 2140 2153 2206 2260 2301 2322 2337 2358 2402 2456 2484 2508 2540 2596 2649 2705 2732 2696 2654 2634 2637 2627 2603 2603 2587 2519 2456 2407 2379 2376 2384 2393 2400 2385 2366 2343 2313 2298 2294 2287 2278 2268 2262 2256 2242 2229 2222 2213 2195 2176 2165 2151 2140 2133 2121 2115 2111 2102 2088 2084 2071 2047 2013 1972 1932 1891 1856 1828 1788 1774 1773 1783 1787 1790 1790 1793 1791 1791 1792 1809
567 564 565 563 562 560 559 565 566 567 567 569 571 571 571 570 571 573 572 573 574 573 572 573 571 571 574 574 573 574 573 570 570 570 570 570 572 573 571 571 570 569 569 569 568 568 569 570 569 568 570 569 572 572 570 571 574 576 583 590 599 615 623 631 644 650 658 661 657 673 683 675 670 676 678 670 669 686 729 767 793 787 789 805 793 775 780 802 850 901 946 998 1030 1040 1024 1003 978 963 954 953 962 991 1011 1027 1041 1055 1107 1129 1156 1195 1227 1256 1293 1316 1319 1403 1470 1535 1593 1642 1689 1742 1794 1871 1880 1884 1895 1917 1946 1979 2022 2050 2078 2088 2073 2069 2115 2179 2197 2198 2179 2153 2127 2096 2087 2092 2103 2099 2088 2079 2071 2061 2050 2035 2021 2004 1985 1965 1959 1963 1960 1959 1965 1984 2007 2023 2037 2063 2097 2134 2171 2211 2284 2288 2247 2208 2165 2143 2127 2097 2066 2033 2006 1993 2008 2031 2040 2040 2044 2035 2025 2037 2053 2076 2087 2098 2112 2129 2156 2188 2196 2202 2153 2131 2120 2119 2118 2118 2109 2114 2138 2141 2114 2098 2088 2082 2085 2093 2094 2091 2089 2082 2078 2071 2062 2050 2030 2013 1988 1965 1943 1932 1930 1931 1937 1949 1961 1968 1986 2017 2050 2094 2123 2150 2173 2195 2222 2248 2267 2296 2329 2369 2398 2425 2468 2489 2499 2514 2525 2526 2523 2533 2542 2571 2616 2634 2597 2573 2566 2553 2581 2606 2633 2684 2722 2731 2702 2657 2614 2593 2578 2562 2522 2467 2429 2383 2352 2315 2285 2257 2221 2197 2177 2159 2152 2156 2167 2183 2205 2220 2243 2306 2324 2308 2290 2274 2252 2233 2212 2188 2166 2158 2161 2170 2179 2183 2185 2181 2164 2139 2109 2086 2072 2054 2040 2017 1990 1953 1907 1866 1836 1807 1778 1741 1708 1701 1712 1720 1731 1740 1747 1745 1740 1735 1725 1710 1691 1672 1648 1627 1602 1578 1565 1559 1559 1555 1552 1545 1525 1507 1482 1452 1428 1418 1414 1404 1396 1393 1392 1395 1391 1365 1337 1329 1345 1371 1402 1442 1463 1461 1474 1501 1532 1557 1592 1635 1694 1751 1787 1798 1815 1849 1883 1911 1948 1989 2047 2114 2176 2223 2256 2279 2298 2320 2344 2365 2381 2393 2404 2406 2385 2338 2269 2180 2079 1976 1879 1793 1713 1635 1558 1477 1400 1338 1287 1231 1136 1095 1048 992 905 851 832 832 829 826 826 825 824 826 826 823 835 865 896 929 967 1011 1050 1086 1113 1125 1135 1155 1181 1212 1245 1270 1398 1493 1601 1634 1633 1612 1581 1579 1387 1208 1180 1127 1085 1042 1012 981 946 909 880 849 823 797 771 750 746 762 789 826 863 910 981 1024 1063 1127 1171 1217 1258 1294 1331 1380 1423 1472 1512 1558 1593 1633 1662 1670 1676 1676 1673 1690 1729 1757 1788 1820 1821 1824 1830 1842 1850 1851 1847 1843 1845 1850 1855 1866 1886 1909 1955 2003 2049 2087 2118 2133 2151 2183 2234 2268 2274 2222 2167 2146 2126 2121 2122 2125 2142 2196 2241 2270 2294 2299 2306 2364 2423 2437 2457 2485 2551 2621 2664 2703 2699 2648 2606 2583 2572 2550 2531 2534 2507 2459 2405 2359 2336 2336 2334 2333 2320 2296 2279 2269 2272 2272 2268 2260 2248 2240 2233 2218 2207 2197 2183 2169 2155 2148 2139 2124 2113 2105 2100 2094 2084 2070 2062 2050 2030 2002 1979 1944 1914 1889 1854 1811 1793 1790 1795 1800 1806 1808 1804 1811 1809 1807 1817
564 562 562 563 563 559 560 567 565 567 568 568 571 570 571 570 571 573 576 573 574 572 573 574 573 573 572 572 571 571 571 571 570 571 571 572 573 571 570 569 568 569 569 570 569 569 569 569 568 569 568 569 572 572 571 570 573 575 583 593 604 615 626 637 648 665 675 680 676 684 695 703 708 696 693 685 693 722 770 810 844 857 854 851 842 820 809 845 884 922 951 1001 1053 1091 1075 1040 1026 1022 1025 1022 1023 1044 1070 1083 1111 1142 1172 1191 1196 1206 1225 1251 1309 1350 1377 1438 1505 1567 1622 1665 1707 1755 1816 1835 1854 1882 1915 1953 1992 2027 2048 2063 2095 2117 2268 2260 2246 2230 2208 2184 2159 2135 2103 2085 2092 2100 2097 2084 2073 2065 2056 2044 2031 2017 1997 1980 1964 1950 1943 1943 1946 1953 1968 1980 1990 2005 2030 2068 2102 2132 2158 2218 2264 2265 2239 2202 2168 2135 2116 2088 2061 2050 2061 2076 2083 2081 2076 2076 2073 2062 2057 2064 2086 2104 2122 2140 2160 2197 2253 2282 2287 2235 2212 2192 2201 2207 2188 2169 2169 2165 2191 2186 2165 2151 2132 2123 2116 2122 2128 2116 2118 2115 2102 2095 2093 2087 2062 2034 2006 1978 1960 1959 1963 1967 1958 1971 1983 2001 2035 2082 2117 2158 2190 2229 2248 2252 2268 2299 2314 2342 2386 2411 2457 2470 2477 2473 2477 2495 2508 2506 2516 2540 2597 2622 2614 2560 2525 2514 2513 2518 2538 2573 2612 2664 2705 2718 2693 2612 2568 2543 2525 2518 2480 2451 2429 2431 2425 2383 2315 2278 2239 2207 2175 2153 2135 2131 2133 2141 2153 2169 2185 2217 2263 2244 2260 2247 2241 2226 2208 2188 2161 2151 2156 2165 2174 2185 2190 2185 2166 2139 2109 2088 2077 2064 2051 2034 2011 1983 1949 1912 1877 1843 1809 1767 1730 1703 1692 1692 1698 1704 1705 1703 1700 1695 1682 1659 1640 1624 1601 1577 1558 1543 1536 1529 1521 1512 1506 1500 1492 1474 1450 1427 1407 1399 1399 1397 1390 1388 1389 1379 1363 1338 1329 1330 1341 1372 1425 1468 1478 1480 1502 1531 1562 1597 1640 1681 1735 1792 1839 1855 1860 1870 1891 1939 1960 1989 2038 2100 2164 2222 2273 2318 2360 2402 2438 2468 2487 2484 2466 2429 2368 2288 2196 2095 1992 1895 1811 1738 1666 1588 1506 1418 1330 1258 1205 1115 1103 1047 981 890 846 837 833 835 831 827 827 829 828 828 824 829 856 885 926 961 1004 1048 1093 1121 1138 1152 1166 1189 1221 1249 1279 1286 1480 1603 1620 1654 1653 1641 1616 1561 1423 1262 1256 1215 1154 1105 1067 1027 985 940 916 894 867 837 806 766 741 744 758 783 813 855 922 1008 1056 1100 1141 1179 1212 1243 1272 1325 1381 1437 1478 1510 1546 1577 1591 1601 1606 1610 1612 1623 1649 1679 1701 1744 1758 1757 1768 1789 1793 1801 1802 1814 1831 1834 1842 1861 1882 1917 1965 2005 2046 2087 2116 2129 2148 2184 2219 2250 2233 2171 2139 2123 2111 2105 2108 2122 2159 2192 2214 2237 2256 2269 2281 2323 2363 2392 2426 2471 2534 2576 2616 2648 2658 2630 2595 2562 2535 2508 2487 2482 2477 2456 2430 2374 2344 2330 2321 2311 2298 2288 2277 2271 2277 2285 2283 2272 2264 2260 2255 2248 2231 2214 2200 2191 2177 2165 2149 2135 2127 2121 2114 2108 2094 2086 2078 2065 2071 2053 2030 2012 1978 1942 1899 1851 1817 1805 1807 1814 1826 1836 1838 1832 1833 1834 1846
563 562 561 560 562 561 563 564 567 567 568 568 569 569 567 568 575 586 585 576 574 575 572 573 573 573 573 574 573 572 572 572 571 572 571 572 573 572 571 571 571 570 570 568 568 568 567 568 570 570 572 574 572 571 571 570 573 576 585 595 612 638 661 679 692 701 708 706 704 703 702 713 720 710 703 701 724 765 813 852 884 908 923 917 897 887 875 879 903 933 966 1012 1060 1103 1119 1100 1094 1089 1098 1110 1129 1139 1150 1155 1172 1189 1217 1238 1235 1245 1256 1270 1312 1347 1404 1475 1544 1604 1653 1682 1702 1770 1806 1838 1881 1921 1968 1988 2015 2045 2063 2076 2164 2266 2265 2248 2221 2192 2168 2149 2134 2117 2091 2087 2092 2095 2086 2076 2063 2052 2037 2021 2007 1996 1971 1950 1942 1935 1933 1936 1944 1951 1961 1974 1992 2013 2045 2082 2116 2131 2209 2267 2267 2254 2228 2196 2162 2126 2105 2095 2088 2100 2111 2103 2097 2108 2121 2134 2139 2136 2114 2102 2116 2146 2170 2192 2223 2284 2326 2341 2331 2299 2264 2271 2281 2268 2254 2224 2238 2252 2254 2251 2224 2201 2183 2168 2167 2175 2175 2170 2149 2140 2128 2109 2097 2091 2083 2065 2033 2001 1978 1978 1984 1993 1989 2006 2031 2070 2126 2172 2217 2246 2281 2318 2339 2378 2425 2440 2465 2490 2509 2498 2487 2475 2470 2467 2466 2478 2491 2511 2564 2595 2605 2565 2513 2484 2467 2461 2464 2486 2524 2559 2599 2646 2690 2696 2687 2591 2527 2503 2478 2457 2435 2416 2407 2408 2408 2420 2388 2345 2288 2234 2200 2161 2132 2115 2108 2107 2106 2118 2126 2146 2166 2194 2203 2203 2198 2201 2194 2181 2161 2150 2158 2164 2167 2164 2157 2145 2132 2117 2093 2076 2065 2058 2051 2040 2025 1996 1963 1940 1909 1881 1842 1803 1758 1717 1690 1669 1667 1672 1669 1663 1653 1637 1623 1608 1593 1580 1564 1549 1532 1516 1506 1500 1492 1478 1468 1463 1455 1434 1417 1407 1400 1391 1386 1382 1383 1384 1383 1367 1344 1329 1329 1333 1348 1378 1418 1465 1490 1505 1528 1558 1608 1647 1691 1744 1800 1853 1890 1903 1880 1962 1984 1993 1991 1996 2019 2061 2114 2174 2239 2306 2378 2446 2495 2526 2544 2523 2484 2424 2341 2241 2130 2017 1909 1813 1734 1667 1601 1528 1448 1361 1273 1198 1145 1104 1067 981 896 847 838 839 839 837 835 835 832 832 832 829 833 856 887 923 973 1004 1046 1086 1122 1153 1175 1189 1213 1233 1255 1287 1389 1478 1642 1632 1650 1668 1668 1650 1625 1585 1550 1454 1333 1277 1237 1186 1140 1103 1058 999 971 941 908 869 836 805 771 750 748 757 775 809 859 954 1016 1061 1097 1126 1156 1182 1219 1267 1338 1398 1430 1467 1498 1530 1536 1537 1548 1553 1557 1552 1557 1591 1615 1664 1687 1694 1711 1736 1740 1745 1760 1784 1801 1813 1837 1856 1885 1933 1978 2019 2067 2098 2111 2122 2146 2178 2213 2237 2189 2148 2132 2124 2119 2109 2108 2119 2135 2159 2182 2196 2206 2234 2256 2290 2330 2370 2413 2469 2506 2527 2555 2592 2626 2631 2607 2573 2543 2510 2482 2462 2452 2442 2428 2406 2380 2368 2359 2342 2329 2320 2309 2309 2317 2326 2326 2318 2309 2307 2299 2285 2276 2266 2253 2241 2217 2198 2190 2170 2156 2147 2145 2148 2155 2145 2146 2138 2123 2107 2087 2058 2029 1985 1943 1897 1849 1828 1825 1832 1845 1854 1865 1863 1865 1867 1878
561 562 561 561 562 562 564 565 566 567 568 569 568 568 569 574 588 594 587 577 571 574 573 572 573 573 574 573 574 574 572 573 572 571 571 571 573 571 570 571 571 572 571 569 571 572 568 569 570 573 574 573 572 570 570 570 571 578 594 621 656 675 684 700 706 712 736 737 730 724 722 727 726 723 717 724 769 816 854 889 923 977 997 1001 984 964 948 938 930 949 1000 1027 1066 1112 1158 1165 1167 1173 1194 1208 1218 1213 1215 1224 1234 1244 1269 1288 1296 1297 1295 1295 1308 1355 1424 1505 1581 1642 1698 1710 1746 1805 1839 1875 1927 1967 2003 2032 2051 2065 2084 2119 2215 2256 2248 2215 2185 2156 2137 2132 2127 2110 2089 2084 2084 2078 2071 2060 2043 2032 2016 2002 1989 1970 1948 1938 1934 1936 1936 1940 1943 1952 1970 1993 2017 2045 2065 2089 2123 2172 2255 2267 2271 2263 2245 2210 2169 2136 2120 2106 2112 2122 2124 2126 2138 2154 2166 2175 2171 2171 2163 2159 2162 2191 2214 2233 2269 2308 2366 2386 2364 2348 2335 2332 2335 2333 2325 2302 2276 2369 2359 2339 2308 2282 2285 2300 2270 2240 2216 2207 2190 2170 2152 2131 2123 2112 2097 2089 2065 2035 2005 1992 1994 2008 2030 2056 2096 2132 2185 2223 2271 2319 2362 2402 2420 2443 2454 2464 2471 2479 2481 2475 2469 2469 2465 2464 2471 2484 2502 2543 2573 2555 2523 2489 2460 2439 2419 2414 2420 2453 2502 2543 2585 2616 2670 2664 2628 2580 2506 2471 2434 2414 2390 2375 2368 2373 2388 2398 2389 2378 2349 2298 2254 2194 2159 2120 2092 2077 2068 2067 2079 2090 2107 2125 2144 2150 2149 2154 2157 2151 2138 2134 2143 2147 2145 2134 2121 2110 2103 2090 2075 2060 2047 2038 2028 2015 2001 1980 1965 1950 1936 1918 1880 1823 1778 1726 1691 1661 1644 1637 1624 1615 1611 1598 1586 1574 1562 1548 1532 1514 1499 1488 1477 1466 1464 1456 1444 1438 1433 1416 1411 1410 1408 1404 1399 1389 1381 1371 1357 1340 1331 1331 1340 1347 1359 1388 1421 1462 1499 1532 1568 1631 1677 1717 1756 1804 1850 1899 1919 1976 2021 2056 2076 2075 2056 2033 2023 2034 2066 2119 2188 2268 2357 2443 2500 2515 2508 2477 2433 2372 2287 2183 2067 1946 1832 1732 1648 1579 1517 1453 1384 1308 1227 1153 1096 1104 1058 941 855 842 841 838 837 836 840 841 837 835 839 842 865 899 935 980 1021 1058 1103 1135 1161 1186 1213 1239 1265 1283 1297 1316 1539 1619 1649 1676 1686 1682 1677 1659 1638 1607 1561 1519 1492 1407 1304 1258 1235 1179 1125 1062 1011 968 932 896 865 839 811 781 758 752 761 799 837 909 988 1020 1046 1072 1099 1132 1169 1227 1293 1376 1396 1422 1440 1461 1474 1471 1482 1491 1495 1484 1476 1499 1538 1582 1617 1636 1658 1675 1677 1698 1727 1759 1783 1810 1832 1859 1909 1950 2010 2049 2077 2102 2109 2121 2143 2173 2202 2189 2128 2105 2096 2093 2098 2093 2089 2088 2094 2109 2143 2152 2159 2194 2248 2302 2332 2373 2393 2418 2440 2465 2495 2533 2545 2559 2563 2552 2552 2536 2512 2489 2469 2453 2444 2428 2416 2412 2403 2389 2370 2356 2341 2371 2376 2381 2383 2366 2361 2363 2355 2340 2327 2321 2304 2293 2273 2253 2222 2205 2195 2185 2188 2196 2209 2212 2198 2178 2163 2151 2134 2108 2075 2025 1986 1943 1903 1866 1845 1849 1865 1873 1885 1898 1902 1902 1911
561 560 559 562 563 563 564 566 566 565 566 571 579 577 580 600 616 617 598 585 577 577 578 575 575 575 574 574 575 573 572 572 573 573 573 573 573 571 570 571 571 571 571 570 571 569 570 572 571 574 577 572 570 569 571 573 573 585 618 646 671 683 685 709 726 744 769 778 766 753 749 747 742 743 746 754 790 839 881 934 989 1037 1070 1080 1063 1041 1033 1012 990 975 999 1059 1115 1180 1223 1237 1248 1260 1278 1282 1285 1275 1267 1273 1286 1290 1305 1333 1359 1352 1341 1324 1332 1347 1440 1526 1607 1673 1732 1780 1817 1856 1889 1920 1980 2016 2047 2062 2080 2096 2125 2217 2254 2239 2210 2182 2160 2141 2140 2135 2117 2098 2080 2075 2067 2059 2049 2033 2019 2007 1995 1982 1960 1948 1940 1935 1934 1935 1936 1945 1967 1992 2013 2035 2046 2057 2067 2091 2129 2197 2245 2263 2299 2282 2248 2213 2177 2152 2143 2134 2136 2147 2150 2165 2182 2207 2243 2265 2265 2247 2219 2199 2199 2209 2231 2253 2283 2328 2392 2418 2399 2382 2379 2380 2393 2405 2420 2441 2464 2484 2486 2477 2463 2443 2417 2388 2349 2329 2286 2254 2236 2224 2193 2171 2156 2146 2132 2106 2076 2050 2020 2010 2016 2030 2048 2080 2123 2175 2218 2261 2297 2347 2380 2403 2411 2416 2423 2430 2432 2443 2449 2457 2468 2478 2484 2494 2509 2530 2537 2513 2480 2464 2454 2434 2408 2391 2383 2380 2380 2405 2458 2503 2549 2599 2624 2629 2605 2553 2507 2453 2415 2393 2362 2345 2332 2326 2329 2331 2328 2334 2336 2335 2304 2257 2197 2155 2111 2076 2051 2039 2042 2046 2052 2065 2079 2097 2109 2112 2116 2117 2106 2106 2113 2114 2108 2102 2092 2079 2073 2064 2050 2036 2021 2007 1993 1979 1961 1946 1933 1922 1912 1895 1865 1819 1773 1730 1690 1657 1632 1616 1600 1584 1579 1568 1558 1539 1521 1508 1493 1480 1463 1453 1445 1444 1446 1442 1435 1431 1430 1424 1420 1415 1412 1405 1401 1397 1394 1382 1362 1349 1344 1346 1351 1358 1375 1402 1436 1485 1529 1563 1603 1660 1707 1738 1773 1834 1855 1918 1975 2038 2098 2141 2165 2165 2139 2099 2060 2038 2043 2082 2149 2230 2320 2412 2480 2498 2470 2422 2368 2303 2219 2118 2003 1881 1763 1657 1565 1490 1427 1372 1317 1255 1185 1111 1042 984 929 853 847 846 844 842 842 841 845 843 840 839 843 862 898 936 977 1016 1053 1097 1142 1184 1207 1230 1268 1296 1315 1328 1344 1464 1533 1605 1682 1718 1723 1709 1690 1664 1634 1617 1596 1572 1520 1483 1411 1282 1246 1194 1129 1092 1051 1011 971 934 898 861 833 806 774 758 759 785 815 862 930 973 995 1027 1056 1103 1155 1206 1263 1345 1348 1364 1379 1391 1405 1411 1412 1439 1441 1431 1418 1425 1455 1500 1542 1574 1589 1608 1633 1676 1712 1745 1776 1803 1832 1877 1936 1975 2013 2040 2077 2104 2116 2117 2129 2150 2171 2128 2089 2068 2053 2051 2056 2046 2036 2031 2033 2051 2072 2106 2144 2191 2256 2309 2339 2325 2324 2339 2363 2398 2429 2460 2477 2477 2484 2491 2513 2553 2568 2554 2525 2489 2488 2483 2472 2462 2453 2453 2472 2502 2520 2481 2473 2462 2460 2442 2439 2428 2424 2407 2398 2393 2373 2370 2347 2316 2270 2249 2239 2224 2221 2239 2253 2258 2242 2235 2225 2206 2194 2178 2145 2089 2036 1993 1957 1919 1886 1880 1890 1899 1908 1923 1937 1944 1947
561 560 560 562 563 562 562 564 566 572 589 606 614 622 630 642 647 642 632 621 612 599 583 577 576 576 574 574 576 574 575 576 575 574 572 572 570 572 571 571 571 571 570 572 572 571 570 572 574 574 574 570 571 571 575 590 604 631 647 655 669 686 703 728 755 778 793 803 807 788 766 767 771 765 775 797 834 875 911 963 1022 1071 1111 1132 1143 1135 1100 1074 1043 1031 1042 1093 1160 1225 1266 1293 1309 1321 1325 1359 1392 1377 1356 1339 1339 1346 1344 1384 1416 1432 1426 1404 1371 1392 1458 1541 1623 1690 1749 1814 1849 1893 1944 1979 2035 2073 2084 2095 2138 2206 2242 2260 2233 2210 2183 2162 2143 2128 2130 2124 2106 2081 2066 2062 2044 2028 2023 2013 2002 1985 1967 1951 1945 1939 1938 1939 1940 1955 1974 1992 2015 2038 2062 2074 2073 2075 2085 2097 2133 2147 2211 2240 2294 2317 2279 2226 2189 2171 2174 2181 2182 2206 2212 2251 2272 2307 2333 2330 2298 2271 2253 2248 2249 2244 2257 2286 2315 2370 2420 2462 2487 2451 2408 2410 2455 2485 2509 2541 2586 2614 2574 2564 2562 2551 2550 2462 2456 2403 2357 2326 2310 2290 2291 2253 2216 2195 2182 2172 2145 2103 2052 2039 2050 2064 2096 2145 2186 2222 2251 2282 2331 2359 2381 2384 2390 2394 2398 2405 2421 2445 2478 2521 2548 2565 2562 2551 2535 2526 2501 2455 2432 2413 2396 2384 2368 2355 2355 2347 2344 2363 2409 2460 2526 2563 2590 2597 2587 2577 2541 2486 2396 2370 2341 2318 2301 2296 2290 2277 2274 2279 2276 2281 2292 2280 2232 2187 2145 2106 2069 2032 2019 2012 2008 2013 2028 2045 2062 2069 2074 2078 2076 2072 2070 2066 2061 2059 2050 2041 2032 2021 2010 2001 1985 1971 1955 1937 1919 1904 1892 1879 1862 1845 1820 1792 1762 1729 1693 1667 1632 1595 1574 1554 1535 1528 1513 1503 1490 1470 1458 1447 1438 1435 1434 1434 1434 1435 1435 1432 1432 1436 1436 1441 1446 1433 1428 1425 1416 1394 1378 1370 1369 1365 1361 1371 1390 1415 1448 1496 1542 1577 1615 1666 1708 1735 1769 1840 1889 1941 2003 2074 2141 2194 2230 2244 2229 2188 2131 2079 2054 2070 2127 2205 2289 2379 2462 2506 2482 2418 2342 2262 2172 2069 1955 1834 1715 1605 1509 1429 1366 1315 1265 1208 1141 1066 989 925 862 849 850 847 847 845 846 846 844 843 842 846 862 892 927 969 1009 1040 1082 1130 1166 1196 1237 1280 1324 1361 1374 1385 1413 1453 1535 1610 1678 1743 1761 1749 1716 1676 1639 1619 1611 1593 1560 1521 1486 1298 1262 1216 1177 1141 1103 1056 1005 961 923 887 860 827 798 780 764 764 779 815 871 920 956 994 1033 1074 1160 1242 1298 1308 1292 1298 1313 1319 1334 1346 1350 1365 1372 1376 1369 1371 1392 1424 1464 1499 1529 1563 1602 1647 1682 1723 1769 1815 1859 1910 1950 1979 2005 2054 2094 2108 2108 2104 2111 2122 2106 2074 2056 2033 2028 2024 2022 2007 1991 1987 1989 2008 2038 2080 2136 2202 2246 2283 2300 2286 2271 2286 2312 2341 2372 2396 2413 2417 2422 2434 2463 2511 2561 2599 2597 2583 2566 2551 2537 2529 2528 2531 2541 2555 2573 2566 2556 2535 2542 2535 2524 2515 2503 2485 2469 2469 2464 2454 2404 2364 2324 2298 2282 2266 2267 2280 2289 2292 2292 2296 2278 2270 2252 2229 2217 2183 2108 2045 2005 1968 1933 1915 1917 1926 1935 1947 1970 1989 1995
560 560 560 560 562 562 564 567 580 597 606 611 629 648 659 673 684 686 684 679 644 619 583 576 576 574 574 574 575 574 575 575 575 573 572 573 572 573 573 572 570 571 571 570 571 571 571 573 574 576 574 569 571 574 591 620 636 651 651 657 672 689 717 746 776 810 835 852 849 820 786 780 783 780 796 830 863 910 946 981 1039 1096 1145 1187 1202 1190 1168 1145 1104 1088 1089 1141 1174 1226 1265 1318 1365 1399 1423 1463 1479 1467 1433 1406 1392 1385 1385 1417 1459 1484 1481 1459 1420 1427 1477 1552 1631 1700 1764 1825 1883 1937 1979 2037 2071 2109 2160 2217 2253 2259 2252 2227 2205 2186 2164 2145 2130 2109 2104 2101 2090 2068 2050 2042 2024 2009 2007 1995 1981 1967 1958 1955 1947 1951 1958 1977 1993 2017 2031 2039 2056 2079 2088 2091 2092 2097 2111 2138 2161 2166 2183 2217 2276 2331 2330 2282 2245 2230 2222 2233 2246 2266 2307 2348 2380 2405 2393 2343 2310 2282 2274 2277 2281 2277 2296 2321 2353 2402 2460 2515 2558 2581 2595 2562 2571 2586 2590 2602 2598 2585 2560 2544 2536 2527 2513 2502 2491 2474 2460 2448 2430 2394 2355 2306 2271 2254 2233 2224 2220 2186 2162 2121 2129 2154 2183 2211 2236 2265 2297 2335 2359 2371 2371 2373 2370 2376 2393 2422 2474 2539 2585 2595 2578 2558 2536 2510 2485 2466 2441 2398 2378 2365 2357 2344 2336 2327 2323 2316 2318 2335 2371 2446 2492 2505 2527 2557 2574 2599 2600 2526 2437 2377 2336 2305 2283 2264 2253 2240 2236 2237 2234 2230 2229 2244 2236 2204 2171 2136 2092 2061 2032 2002 1987 1983 1989 1997 2009 2022 2023 2027 2032 2030 2025 2017 2014 2012 2005 1997 1985 1975 1967 1959 1945 1929 1913 1899 1881 1865 1848 1832 1813 1793 1775 1758 1739 1726 1703 1666 1622 1587 1556 1529 1511 1494 1478 1471 1461 1456 1445 1439 1436 1436 1434 1433 1432 1432 1436 1445 1458 1463 1469 1474 1471 1464 1463 1460 1441 1422 1413 1399 1395 1393 1395 1399 1424 1442 1465 1502 1540 1577 1617 1664 1701 1749 1828 1856 1911 1953 2003 2076 2148 2212 2265 2304 2317 2291 2231 2159 2105 2093 2130 2198 2277 2363 2450 2507 2500 2434 2346 2253 2155 2048 1933 1814 1699 1592 1497 1420 1361 1311 1254 1184 1106 1026 949 871 861 855 853 852 852 851 848 849 850 847 845 864 890 930 965 1005 1038 1071 1106 1149 1185 1225 1261 1304 1341 1372 1389 1423 1464 1501 1541 1609 1668 1756 1778 1771 1746 1698 1661 1632 1611 1590 1563 1543 1521 1471 1383 1274 1217 1170 1123 1078 1039 1002 965 927 889 858 834 817 815 804 785 782 809 872 935 987 1026 1048 1135 1217 1251 1251 1232 1228 1241 1259 1275 1287 1290 1296 1301 1314 1320 1321 1339 1359 1385 1430 1477 1524 1570 1615 1660 1718 1770 1821 1879 1922 1957 1987 2024 2063 2079 2088 2086 2080 2074 2059 2046 2025 1988 1975 1971 1961 1960 1953 1944 1955 1968 1998 2047 2088 2148 2189 2214 2230 2236 2230 2236 2257 2284 2312 2367 2378 2376 2379 2383 2405 2437 2487 2538 2592 2623 2645 2634 2615 2600 2593 2577 2636 2603 2596 2622 2634 2636 2615 2612 2620 2605 2612 2614 2596 2557 2536 2508 2474 2443 2418 2391 2362 2335 2304 2308 2315 2319 2317 2329 2337 2326 2315 2296 2279 2271 2235 2191 2156 2069 2013 1986 1964 1939 1947 1972 1995 2017 2035 2054
561 560 561 562 567 585 604 602 594 593 597 612 639 664 675 687 710 727 722 692 646 600 578 574 574 574 575 574 574 574 575 576 575 573 573 572 573 574 573 571 571 572 571 572 572 574 578 577 578 574 574 574 573 580 606 631 642 650 651 658 682 713 739 763 799 828 853 867 857 818 794 793 800 796 805 852 900 941 992 1029 1078 1139 1191 1229 1259 1260 1234 1198 1173 1140 1129 1180 1220 1241 1276 1332 1396 1432 1476 1516 1535 1513 1486 1452 1443 1440 1439 1473 1512 1562 1560 1527 1461 1462 1487 1563 1637 1708 1778 1848 1917 1982 2044 2098 2134 2191 2251 2259 2254 2243 2222 2197 2174 2151 2139 2121 2103 2091 2088 2081 2070 2051 2030 2023 2012 2006 1999 1992 1992 1995 1981 1978 1985 2007 2023 2032 2048 2063 2078 2087 2094 2098 2099 2101 2118 2149 2165 2167 2166 2167 2179 2227 2294 2360 2378 2357 2307 2289 2279 2289 2322 2354 2402 2436 2464 2496 2463 2407 2352 2322 2308 2308 2309 2313 2334 2353 2387 2438 2495 2537 2562 2582 2589 2588 2581 2577 2572 2571 2561 2538 2514 2493 2480 2472 2466 2464 2458 2448 2444 2431 2412 2394 2372 2351 2321 2300 2281 2274 2269 2249 2222 2194 2198 2213 2239 2267 2296 2321 2349 2355 2353 2351 2350 2358 2371 2400 2448 2519 2574 2588 2577 2550 2522 2490 2459 2444 2425 2404 2372 2344 2333 2326 2323 2320 2313 2307 2292 2285 2285 2296 2311 2380 2445 2449 2458 2495 2533 2597 2614 2599 2562 2505 2404 2346 2293 2260 2234 2220 2209 2202 2198 2197 2195 2195 2197 2184 2168 2147 2121 2088 2045 2011 1985 1967 1964 1968 1970 1978 1984 1986 1989 1989 1981 1976 1973 1967 1959 1954 1944 1933 1921 1911 1902 1890 1876 1863 1846 1827 1809 1786 1766 1747 1731 1714 1701 1689 1661 1626 1594 1561 1526 1505 1494 1474 1461 1458 1455 1453 1447 1449 1453 1444 1444 1440 1435 1441 1453 1472 1489 1507 1519 1514 1506 1506 1504 1501 1488 1471 1458 1444 1434 1428 1442 1446 1453 1461 1476 1497 1531 1565 1606 1648 1688 1724 1781 1826 1882 1904 1978 2056 2137 2211 2278 2340 2385 2388 2339 2262 2190 2153 2164 2217 2293 2375 2449 2492 2480 2421 2339 2249 2151 2044 1931 1818 1708 1607 1518 1448 1394 1344 1279 1191 1094 1003 929 878 867 858 857 856 853 854 855 848 848 852 855 878 919 959 989 1032 1073 1105 1137 1173 1210 1252 1294 1331 1368 1394 1423 1473 1511 1544 1564 1606 1684 1751 1785 1785 1763 1721 1680 1642 1618 1599 1577 1557 1538 1509 1470 1404 1323 1216 1164 1125 1084 1041 1000 969 933 900 878 867 859 846 820 796 784 852 920 968 1011 1046 1129 1178 1188 1194 1177 1169 1177 1187 1201 1223 1238 1239 1242 1245 1259 1267 1287 1309 1338 1386 1437 1489 1531 1584 1647 1703 1752 1829 1887 1930 1954 1983 2023 2056 2069 2065 2050 2032 2014 2002 1992 1959 1926 1914 1905 1901 1890 1898 1921 1935 1950 1987 2045 2099 2139 2160 2168 2178 2190 2202 2226 2256 2286 2329 2350 2353 2350 2361 2376 2400 2433 2477 2529 2585 2634 2686 2708 2717 2717 2805 2744 2742 2740 2802 2776 2749 2725 2715 2710 2711 2699 2685 2669 2639 2601 2571 2537 2506 2483 2459 2435 2407 2378 2360 2357 2361 2356 2359 2372 2377 2374 2384 2423 2421 2386 2336 2268 2206 2176 2053 2035 1985 1935 2005 2035 2071 2087 2108 2126
561 564 567 590 628 651 651 631 615 596 594 606 632 661 671 676 699 708 702 662 609 577 576 577 576 574 576 576 576 574 572 574 575 574 572 572 575 575 575 575 572 573 572 574 573 573 577 577 575 574 574 574 575 590 615 644 659 659 660 672 697 724 750 787 828 860 878 874 851 812 798 807 810 810 824 870 922 964 1012 1067 1110 1154 1197 1233 1273 1302 1305 1274 1226 1200 1177 1219 1274 1302 1329 1372 1414 1459 1501 1544 1581 1583 1566 1535 1514 1499 1501 1541 1584 1619 1611 1566 1502 1501 1520 1567 1654 1727 1803 1880 1956 2032 2102 2160 2219 2246 2253 2241 2225 2210 2193 2166 2145 2126 2111 2091 2074 2069 2068 2060 2047 2034 2024 2018 2016 2016 2020 2017 2025 2025 2042 2051 2065 2084 2083 2089 2097 2103 2112 2109 2108 2110 2127 2150 2174 2182 2183 2174 2171 2170 2183 2251 2318 2390 2421 2417 2377 2341 2330 2346 2400 2454 2490 2531 2553 2568 2538 2481 2429 2393 2374 2347 2382 2366 2368 2383 2416 2459 2500 2527 2544 2547 2543 2540 2530 2524 2521 2528 2522 2503 2483 2454 2443 2436 2439 2440 2433 2429 2423 2412 2397 2389 2380 2373 2360 2343 2310 2285 2276 2266 2263 2269 2282 2300 2327 2330 2332 2332 2334 2336 2341 2346 2357 2383 2420 2487 2547 2570 2569 2549 2527 2502 2467 2431 2409 2388 2366 2342 2320 2302 2292 2297 2293 2288 2284 2276 2263 2252 2250 2255 2269 2317 2382 2386 2397 2423 2480 2534 2557 2559 2542 2516 2487 2465 2377 2335 2254 2216 2198 2185 2176 2170 2169 2171 2174 2163 2145 2130 2111 2091 2066 2031 1994 1960 1947 1944 1944 1944 1948 1949 1946 1950 1944 1936 1930 1922 1918 1916 1907 1898 1886 1876 1863 1848 1836 1825 1808 1787 1769 1748 1727 1711 1696 1678 1662 1640 1613 1582 1550 1522 1501 1492 1480 1472 1463 1458 1457 1457 1454 1452 1459 1461 1457 1458 1463 1482 1503 1521 1545 1554 1560 1559 1559 1569 1562 1555 1549 1532 1503 1484 1489 1506 1517 1515 1494 1482 1483 1500 1528 1549 1588 1622 1656 1692 1735 1787 1830 1869 1935 2020 2110 2193 2267 2340 2411 2449 2424 2359 2288 2241 2235 2274 2343 2415 2463 2471 2441 2383 2311 2230 2139 2038 1932 1825 1722 1625 1539 1472 1420 1370 1304 1212 1105 1004 925 870 866 859 859 856 857 859 856 853 852 853 869 893 940 980 1015 1057 1096 1122 1166 1201 1236 1273 1319 1359 1391 1425 1457 1496 1541 1571 1602 1656 1722 1769 1802 1800 1777 1748 1716 1684 1661 1637 1608 1579 1565 1555 1530 1491 1446 1405 1349 1183 1158 1096 1076 1047 1016 964 932 919 895 885 859 820 798 843 885 921 969 1004 1060 1123 1130 1132 1122 1121 1119 1127 1132 1155 1169 1182 1179 1183 1190 1211 1242 1271 1301 1342 1392 1456 1511 1571 1624 1677 1734 1804 1865 1913 1948 1968 1992 2015 2018 2001 1982 1972 1960 1948 1928 1897 1867 1854 1849 1849 1854 1884 1909 1923 1949 1985 2037 2073 2098 2115 2133 2153 2173 2203 2243 2276 2289 2291 2297 2309 2327 2350 2378 2411 2445 2480 2535 2587 2638 2689 2742 2787 2821 2833 2844 2832 2816 2816 2823 2824 2811 2807 2798 2784 2763 2731 2692 2655 2623 2595 2573 2537 2505 2486 2461 2438 2415 2403 2400 2401 2417 2418 2411 2425 2447 2469 2482 2446 2358 2326 2272 2237 2231 2197 2175 2211 2197 2180 2162 2153 2167 2191 2198
562 574 614 642 654 661 663 651 642 624 611 610 631 643 641 640 648 657 650 618 580 575 575 576 576 577 576 576 575 574 573 574 574 574 575 576 575 575 575 573 572 573 574 575 577 575 578 575 572 574 575 576 579 589 612 639 651 664 675 690 711 739 776 814 851 890 911 900 861 838 820 817 822 827 830 856 900 945 992 1038 1086 1124 1158 1193 1229 1271 1310 1327 1295 1265 1246 1247 1279 1326 1366 1408 1457 1496 1542 1593 1639 1656 1632 1609 1588 1568 1570 1592 1636 1658 1642 1576 1553 1552 1573 1615 1684 1743 1840 1921 2004 2085 2157 2207 2248 2243 2232 2212 2193 2176 2155 2135 2121 2112 2096 2077 2066 2062 2058 2048 2039 2030 2029 2031 2026 2026 2039 2049 2064 2081 2098 2110 2134 2139 2133 2137 2132 2128 2125 2128 2139 2161 2186 2198 2197 2184 2178 2184 2192 2201 2217 2253 2345 2409 2449 2472 2448 2411 2387 2411 2456 2511 2566 2605 2634 2634 2610 2576 2536 2515 2492 2505 2524 2522 2502 2495 2497 2527 2541 2537 2532 2506 2494 2480 2474 2469 2464 2468 2472 2467 2452 2431 2422 2421 2428 2431 2429 2423 2419 2407 2397 2390 2385 2378 2373 2357 2332 2311 2315 2325 2338 2357 2378 2375 2360 2357 2336 2325 2333 2352 2356 2391 2414 2491 2530 2551 2551 2542 2529 2513 2500 2476 2444 2409 2372 2342 2316 2293 2275 2262 2262 2262 2262 2260 2260 2252 2236 2225 2223 2226 2230 2250 2291 2325 2340 2377 2423 2472 2514 2518 2502 2483 2459 2434 2415 2383 2350 2269 2218 2184 2163 2153 2147 2152 2159 2153 2142 2123 2103 2084 2062 2042 2007 1967 1940 1931 1927 1920 1910 1901 1902 1903 1904 1900 1894 1885 1880 1875 1868 1859 1846 1836 1822 1808 1795 1780 1761 1744 1728 1712 1694 1684 1677 1668 1653 1615 1581 1561 1539 1515 1502 1488 1478 1471 1465 1460 1457 1458 1461 1462 1470 1480 1486 1494 1512 1541 1567 1595 1605 1602 1614 1617 1620 1642 1652 1631 1622 1602 1555 1542 1541 1543 1552 1553 1547 1535 1518 1511 1521 1553 1587 1641 1652 1661 1691 1752 1787 1822 1847 1973 2066 2153 2230 2306 2389 2455 2472 2439 2385 2345 2338 2369 2426 2479 2497 2474 2425 2361 2287 2207 2119 2025 1926 1826 1726 1631 1546 1477 1424 1373 1311 1225 1121 1016 931 871 866 860 862 858 857 865 861 860 858 863 888 922 960 1018 1050 1086 1117 1156 1194 1231 1271 1306 1344 1386 1415 1450 1494 1534 1571 1605 1648 1705 1750 1806 1865 1862 1831 1800 1769 1740 1709 1675 1642 1613 1599 1585 1553 1515 1473 1423 1373 1331 1291 1236 1187 1145 1098 1054 1013 975 938 913 882 845 820 818 831 848 886 940 995 1038 1059 1067 1065 1065 1066 1060 1061 1085 1105 1112 1117 1112 1138 1173 1199 1229 1266 1313 1361 1422 1497 1546 1592 1646 1698 1758 1816 1860 1900 1933 1945 1953 1960 1936 1915 1909 1907 1894 1876 1849 1821 1808 1806 1813 1823 1851 1886 1903 1947 1982 2018 2041 2060 2079 2102 2134 2165 2218 2251 2258 2254 2258 2265 2279 2304 2335 2369 2401 2441 2485 2556 2594 2636 2690 2738 2781 2820 2870 2903 2925 2915 2905 2916 2934 2917 2890 2854 2815 2777 2739 2705 2678 2650 2630 2616 2593 2594 2604 2585 2555 2547 2524 2506 2479 2457 2457 2460 2483 2501 2536 2494 2373 2366 2336 2314 2298 2303 2300 2290 2267 2254 2238 2229 2226 2236 2252 2264
587 626 652 652 652 661 660 653 647 632 614 611 622 633 622 623 617 610 600 582 574 576 575 576 577 578 577 577 575 575 574 574 574 575 574 572 574 575 574 572 573 574 575 576 577 577 578 576 575 575 579 586 601 612 618 633 651 664 678 696 724 753 779 806 839 873 902 911 888 862 853 854 867 870 858 851 870 908 952 995 1034 1076 1109 1146 1184 1222 1262 1291 1316 1318 1319 1321 1313 1347 1382 1430 1482 1506 1629 1655 1688 1698 1673 1650 1642 1637 1630 1643 1690 1708 1675 1610 1593 1609 1634 1676 1737 1757 1888 1970 2056 2137 2242 2246 2234 2225 2209 2190 2169 2144 2123 2112 2107 2100 2089 2077 2068 2060 2049 2046 2040 2035 2031 2036 2043 2047 2066 2085 2109 2125 2143 2162 2186 2183 2179 2170 2158 2168 2180 2194 2209 2210 2203 2189 2179 2178 2195 2219 2236 2268 2300 2355 2404 2446 2479 2503 2481 2456 2445 2470 2526 2575 2602 2615 2623 2625 2620 2605 2605 2606 2563 2550 2552 2549 2539 2523 2514 2521 2512 2504 2488 2476 2458 2439 2426 2423 2410 2410 2408 2416 2413 2403 2397 2394 2401 2410 2418 2411 2400 2391 2382 2385 2386 2379 2372 2362 2347 2336 2338 2343 2354 2370 2401 2436 2482 2553 2486 2469 2450 2446 2458 2480 2538 2552 2539 2520 2506 2499 2493 2491 2486 2476 2463 2429 2389 2319 2284 2256 2243 2235 2238 2243 2247 2244 2245 2231 2216 2207 2205 2205 2200 2211 2241 2266 2283 2321 2374 2418 2464 2477 2465 2445 2429 2408 2385 2361 2345 2329 2227 2185 2156 2141 2135 2138 2146 2143 2127 2110 2098 2083 2053 2031 2004 1983 1954 1934 1924 1911 1897 1879 1869 1868 1864 1861 1859 1853 1849 1842 1829 1817 1809 1796 1780 1769 1755 1739 1724 1713 1701 1689 1674 1663 1656 1643 1631 1605 1574 1558 1547 1530 1506 1491 1488 1480 1473 1469 1464 1470 1479 1490 1500 1513 1527 1540 1569 1600 1629 1643 1645 1650 1655 1665 1693 1720 1738 1735 1737 1715 1698 1662 1633 1615 1612 1615 1602 1586 1560 1539 1555 1619 1651 1717 1722 1694 1675 1702 1756 1788 1847 1927 2014 2100 2180 2259 2349 2440 2498 2504 2477 2456 2460 2488 2528 2555 2549 2507 2443 2367 2284 2197 2105 2013 1920 1825 1727 1632 1547 1478 1422 1369 1307 1227 1126 1020 935 887 870 869 869 867 861 866 867 872 875 883 912 945 1001 1055 1093 1129 1160 1194 1214 1254 1297 1333 1367 1406 1434 1483 1536 1578 1604 1644 1684 1738 1788 1852 1912 1921 1891 1863 1836 1819 1807 1781 1748 1705 1675 1636 1589 1545 1497 1452 1407 1357 1306 1270 1229 1181 1134 1096 1058 1025 989 949 906 878 849 830 819 816 833 855 916 953 970 977 990 1005 1017 1013 1008 1013 1036 1048 1051 1063 1100 1138 1163 1199 1237 1285 1334 1394 1469 1517 1558 1600 1655 1709 1754 1797 1840 1860 1871 1877 1845 1841 1839 1842 1841 1835 1819 1805 1783 1768 1763 1775 1791 1821 1849 1895 1935 1967 1989 2013 2040 2069 2092 2126 2194 2221 2232 2230 2237 2248 2253 2266 2290 2318 2347 2391 2453 2499 2549 2576 2604 2647 2695 2744 2800 2862 2895 2902 2915 2933 2959 2981 2983 2955 2917 2866 2808 2767 2744 2729 2688 2650 2713 2692 2704 2716 2694 2666 2630 2604 2575 2544 2507 2505 2519 2548 2576 2562 2512 2459 2420 2388 2370 2358 2352 2348 2329 2321 2321 2311 2297 2298 2300 2306 2315
666 678 685 682 669 662 662 664 653 624 608 605 605 616 619 614 600 578 577 575 574 576 575 576 576 578 578 577 577 574 573 574 574 577 575 574 574 575 574 574 575 577 577 576 578 577 577 575 578 588 609 622 636 651 669 682 692 705 717 721 733 756 778 800 822 846 877 903 916 913 912 923 937 927 904 879 871 892 926 958 1000 1043 1079 1116 1150 1185 1210 1233 1262 1286 1321 1361 1382 1391 1396 1423 1521 1559 1625 1678 1722 1781 1766 1736 1704 1681 1671 1696 1737 1734 1677 1657 1658 1680 1699 1723 1765 1867 1944 2025 2107 2178 2235 2232 2223 2209 2185 2167 2151 2130 2113 2104 2096 2086 2082 2072 2069 2062 2055 2053 2057 2055 2049 2058 2062 2087 2114 2134 2158 2174 2200 2221 2251 2264 2260 2245 2242 2237 2226 2218 2207 2188 2179 2188 2206 2226 2253 2286 2329 2363 2400 2437 2476 2503 2513 2523 2528 2514 2520 2542 2556 2562 2566 2568 2573 2576 2592 2605 2605 2607 2597 2573 2553 2529 2504 2491 2480 2474 2462 2446 2438 2431 2420 2409 2393 2378 2374 2367 2367 2374 2373 2369 2368 2372 2388 2411 2434 2442 2422 2404 2395 2390 2374 2359 2351 2347 2344 2344 2342 2341 2350 2377 2477 2528 2566 2593 2575 2558 2513 2496 2511 2519 2528 2516 2496 2480 2472 2471 2469 2470 2471 2479 2481 2438 2388 2296 2270 2233 2222 2222 2220 2219 2221 2222 2230 2235 2227 2209 2196 2196 2188 2191 2208 2222 2247 2280 2328 2359 2403 2435 2428 2410 2398 2376 2355 2330 2308 2286 2271 2243 2187 2138 2125 2121 2124 2123 2117 2108 2094 2072 2043 2016 1993 1970 1953 1936 1924 1914 1900 1883 1865 1851 1837 1830 1827 1823 1817 1814 1805 1788 1767 1756 1747 1736 1724 1716 1707 1699 1696 1688 1674 1660 1644 1627 1609 1587 1572 1559 1541 1522 1509 1500 1487 1476 1476 1480 1486 1500 1519 1534 1548 1564 1579 1594 1627 1656 1668 1675 1688 1699 1707 1733 1762 1795 1820 1844 1848 1796 1771 1743 1717 1693 1673 1652 1636 1622 1587 1560 1546 1665 1735 1749 1750 1727 1699 1684 1715 1756 1816 1893 1974 2055 2136 2220 2315 2417 2502 2544 2548 2554 2574 2598 2620 2624 2600 2547 2471 2384 2292 2199 2105 2013 1923 1829 1733 1639 1554 1484 1426 1369 1302 1219 1117 1012 933 893 876 875 874 871 865 864 866 877 887 903 933 983 1040 1087 1124 1161 1194 1217 1247 1279 1310 1343 1375 1407 1451 1514 1564 1603 1644 1684 1729 1775 1831 1898 1948 1977 1962 1932 1908 1887 1864 1837 1796 1755 1712 1670 1619 1571 1524 1483 1431 1387 1347 1301 1264 1224 1177 1126 1087 1046 1008 971 936 907 875 854 846 829 823 826 845 870 887 902 914 925 956 970 971 972 979 990 1003 1030 1076 1102 1133 1167 1210 1255 1303 1368 1430 1481 1521 1576 1624 1662 1693 1724 1767 1785 1794 1792 1783 1777 1781 1784 1779 1782 1777 1764 1751 1733 1729 1752 1779 1803 1838 1874 1916 1952 1981 2013 2055 2079 2107 2159 2202 2205 2204 2206 2220 2238 2244 2259 2292 2309 2329 2363 2417 2461 2495 2521 2544 2592 2660 2714 2770 2821 2854 2858 2882 2919 2959 2987 3012 3000 2955 2912 2865 2834 2805 2815 2812 2869 2849 2810 2797 2786 2770 2751 2719 2679 2635 2595 2557 2574 2591 2602 2588 2554 2521 2489 2476 2470 2445 2421 2412 2401 2390 2378 2368 2358 2342 2336 2338 2344 2350
732 717 695 682 668 658 658 660 643 609 599 600 602 608 616 607 584 577 577 577 576 575 575 576 577 578 577 574 576 576 576 575 575 577 576 576 576 576 576 574 576 579 579 579 582 577 575 581 592 608 630 651 668 676 701 722 739 753 772 776 776 792 813 836 854 872 893 924 957 992 1006 1023 1015 976 943 917 899 895 914 940 983 1046 1078 1101 1125 1148 1170 1193 1225 1251 1284 1321 1373 1410 1425 1469 1527 1572 1625 1664 1714 1778 1828 1848 1815 1786 1761 1779 1787 1744 1728 1727 1734 1739 1752 1774 1832 1915 2006 2081 2150 2217 2218 2215 2200 2179 2155 2148 2142 2124 2109 2098 2094 2083 2085 2081 2077 2073 2074 2078 2082 2082 2077 2096 2115 2141 2163 2185 2206 2248 2287 2296 2294 2285 2277 2268 2250 2229 2206 2196 2193 2195 2215 2239 2256 2280 2311 2367 2395 2410 2445 2479 2508 2515 2528 2544 2550 2548 2544 2535 2526 2520 2518 2521 2523 2534 2570 2598 2599 2595 2578 2557 2528 2501 2480 2463 2450 2442 2430 2420 2412 2401 2389 2379 2364 2351 2347 2336 2331 2328 2328 2331 2341 2356 2383 2403 2415 2441 2451 2465 2478 2452 2426 2373 2344 2345 2345 2372 2347 2374 2414 2482 2530 2550 2564 2569 2557 2521 2480 2460 2451 2454 2468 2471 2464 2460 2453 2453 2456 2456 2462 2470 2478 2462 2354 2293 2258 2221 2209 2208 2200 2193 2193 2200 2211 2244 2259 2228 2197 2183 2177 2170 2181 2191 2208 2225 2262 2306 2353 2390 2389 2374 2363 2344 2316 2295 2255 2237 2230 2223 2199 2164 2124 2109 2111 2109 2109 2102 2076 2048 2013 1983 1965 1951 1945 1936 1920 1904 1891 1879 1865 1844 1827 1813 1804 1794 1789 1787 1779 1766 1743 1729 1721 1713 1707 1702 1701 1697 1687 1679 1671 1663 1648 1627 1609 1591 1577 1559 1541 1524 1511 1496 1486 1488 1499 1512 1530 1545 1568 1589 1606 1624 1641 1664 1688 1701 1698 1708 1724 1740 1764 1791 1822 1854 1898 1938 1940 1944 1903 1817 1782 1743 1718 1695 1682 1674 1643 1605 1596 1659 1724 1745 1751 1745 1717 1693 1706 1738 1798 1875 1956 2034 2114 2200 2292 2388 2474 2534 2575 2616 2650 2667 2667 2650 2616 2559 2480 2391 2300 2209 2118 2028 1938 1845 1748 1654 1569 1496 1433 1367 1290 1200 1098 1001 934 904 894 884 879 876 873 871 867 876 901 946 993 1031 1072 1109 1146 1180 1206 1234 1267 1284 1308 1342 1379 1421 1509 1569 1618 1652 1701 1739 1783 1828 1896 1943 1994 2031 2024 1989 1958 1920 1889 1853 1809 1765 1719 1674 1630 1588 1540 1489 1448 1412 1369 1331 1289 1245 1196 1142 1102 1073 1050 1014 971 936 901 888 878 869 866 858 848 837 841 855 874 884 915 933 939 934 938 953 970 1002 1036 1064 1104 1148 1181 1222 1270 1333 1388 1439 1483 1539 1588 1623 1639 1669 1692 1705 1709 1717 1707 1710 1720 1728 1727 1735 1737 1728 1713 1700 1713 1741 1770 1796 1829 1860 1906 1956 1995 2030 2052 2099 2125 2165 2188 2186 2197 2193 2195 2208 2221 2234 2264 2283 2298 2326 2367 2408 2441 2467 2497 2542 2618 2669 2713 2742 2782 2826 2853 2899 2949 2996 3019 3017 2993 2966 2961 2948 2931 2913 2893 2876 2859 2832 2803 2781 2760 2742 2725 2704 2675 2646 2626 2637 2627 2617 2595 2562 2535 2516 2502 2489 2470 2452 2434 2420 2402 2389 2387 2381 2369 2363 2363 2366 2368
760 745 717 699 699 689 665 650 631 610 595 593 590 586 589 586 579 580 579 577 577 578 578 578 578 577 578 577 576 576 576 575 575 576 576 576 575 575 576 577 578 580 583 580 582 582 590 617 640 652 658 669 684 715 747 776 797 820 838 845 840 855 876 893 910 933 961 989 1018 1043 1072 1095 1086 1045 995 962 938 924 925 949 984 1011 1032 1049 1081 1105 1161 1196 1242 1282 1321 1348 1384 1425 1460 1527 1571 1609 1654 1684 1724 1795 1838 1874 1867 1843 1838 1843 1827 1787 1790 1811 1814 1801 1813 1853 1926 2002 2050 2133 2178 2208 2199 2181 2164 2147 2139 2140 2133 2120 2110 2103 2107 2099 2103 2102 2098 2093 2099 2108 2115 2112 2126 2151 2172 2193 2214 2274 2307 2334 2332 2304 2291 2281 2260 2244 2221 2205 2208 2222 2238 2246 2259 2282 2318 2379 2421 2454 2447 2453 2483 2500 2507 2519 2531 2533 2528 2517 2502 2497 2489 2480 2482 2484 2487 2500 2539 2570 2579 2576 2562 2540 2511 2486 2465 2455 2449 2437 2423 2410 2398 2384 2370 2353 2346 2336 2322 2308 2303 2296 2289 2291 2304 2322 2354 2365 2373 2386 2401 2424 2453 2462 2488 2400 2378 2382 2399 2416 2432 2479 2505 2505 2500 2497 2514 2524 2516 2483 2437 2413 2407 2409 2417 2428 2440 2442 2441 2440 2440 2444 2448 2455 2459 2439 2354 2282 2252 2215 2193 2181 2177 2178 2180 2183 2192 2228 2268 2247 2203 2176 2162 2153 2158 2165 2172 2187 2211 2251 2301 2343 2346 2337 2322 2311 2285 2255 2211 2187 2182 2177 2169 2167 2152 2115 2096 2089 2083 2071 2047 2021 1993 1970 1952 1941 1932 1926 1920 1906 1889 1873 1857 1840 1825 1813 1803 1789 1776 1767 1752 1741 1728 1713 1703 1696 1694 1692 1691 1690 1685 1678 1672 1662 1647 1630 1612 1594 1573 1552 1532 1516 1502 1495 1510 1528 1545 1563 1581 1606 1640 1661 1667 1695 1717 1729 1729 1730 1734 1737 1753 1774 1802 1834 1872 1919 1975 2026 2065 2032 1987 1947 1869 1815 1773 1744 1720 1701 1681 1649 1650 1684 1717 1752 1775 1779 1758 1728 1717 1737 1791 1868 1952 2035 2115 2198 2282 2363 2438 2505 2570 2633 2672 2670 2647 2615 2577 2524 2454 2377 2300 2220 2134 2048 1960 1871 1777 1683 1595 1517 1443 1362 1268 1168 1074 997 949 924 909 888 880 882 882 877 876 893 933 988 1042 1079 1095 1124 1158 1190 1215 1238 1273 1311 1340 1385 1445 1498 1561 1619 1671 1714 1763 1801 1841 1879 1917 1956 2009 2050 2067 2053 2011 1967 1916 1856 1811 1764 1723 1681 1635 1591 1548 1498 1459 1427 1389 1345 1304 1251 1207 1170 1146 1124 1091 1046 992 953 924 914 903 886 877 875 872 857 842 843 858 868 889 909 911 909 914 925 939 966 1000 1032 1077 1109 1137 1168 1219 1276 1331 1378 1430 1483 1527 1552 1573 1593 1631 1645 1640 1642 1641 1638 1654 1657 1666 1684 1691 1678 1663 1670 1701 1732 1758 1784 1829 1870 1914 1961 1990 2026 2052 2073 2114 2151 2162 2166 2171 2171 2170 2174 2181 2192 2219 2244 2266 2295 2332 2367 2394 2426 2457 2507 2564 2608 2645 2674 2704 2752 2820 2881 2949 3008 3036 3042 3030 3008 2987 2964 2944 2920 2891 2874 2856 2821 2787 2768 2748 2732 2715 2696 2675 2663 2656 2644 2637 2622 2601 2580 2566 2551 2536 2516 2489 2462 2441 2423 2408 2403 2400 2397 2386 2379 2376 2378 2383
784 756 741 731 723 717 691 669 662 653 628 602 583 579 580 577 577 577 578 576 578 577 578 577 579 578 579 579 578 580 578 580 578 577 576 577 578 577 578 578 580 584 586 594 607 614 622 646 669 691 717 734 760 805 832 872 886 909 916 921 930 946 954 974 985 1008 1026 1053 1080 1113 1140 1155 1128 1094 1049 1015 1006 999 947 950 981 1008 1041 1081 1136 1179 1224 1255 1298 1345 1384 1418 1442 1470 1504 1573 1613 1646 1668 1702 1739 1800 1855 1897 1920 1906 1899 1898 1882 1857 1883 1890 2007 1914 1921 1987 2031 2068 2119 2197 2208 2184 2160 2136 2123 2125 2134 2141 2131 2119 2114 2121 2124 2121 2122 2119 2124 2126 2131 2141 2151 2161 2185 2204 2233 2255 2305 2357 2359 2338 2317 2297 2276 2263 2238 2226 2234 2263 2272 2275 2284 2286 2311 2391 2432 2472 2493 2506 2494 2488 2490 2496 2510 2522 2514 2501 2496 2487 2474 2469 2464 2451 2447 2454 2468 2486 2513 2535 2548 2551 2541 2526 2508 2487 2468 2457 2441 2429 2414 2398 2387 2375 2361 2344 2335 2318 2302 2288 2277 2269 2265 2268 2282 2303 2336 2349 2337 2335 2348 2363 2386 2398 2383 2386 2382 2407 2439 2452 2461 2467 2465 2447 2441 2440 2452 2472 2471 2448 2413 2384 2383 2380 2371 2380 2403 2425 2429 2424 2426 2429 2431 2440 2443 2428 2358 2279 2232 2197 2174 2154 2149 2158 2164 2165 2171 2187 2235 2264 2225 2186 2158 2143 2141 2144 2141 2148 2165 2201 2247 2299 2308 2307 2297 2280 2263 2237 2205 2167 2153 2149 2141 2139 2143 2124 2090 2064 2050 2036 2018 2002 1984 1962 1946 1935 1924 1912 1903 1894 1883 1871 1860 1847 1830 1823 1814 1801 1793 1784 1764 1743 1731 1719 1700 1683 1678 1680 1682 1679 1676 1669 1658 1641 1627 1613 1594 1582 1565 1539 1517 1513 1516 1526 1549 1582 1613 1642 1674 1698 1718 1739 1760 1780 1784 1763 1751 1756 1762 1763 1764 1792 1830 1864 1925 2031 2087 2115 2109 2077 2036 1985 1895 1884 1836 1790 1766 1753 1729 1691 1684 1698 1730 1767 1787 1793 1789 1748 1730 1734 1795 1869 1955 2043 2126 2206 2282 2354 2424 2494 2566 2625 2647 2628 2554 2514 2505 2458 2402 2343 2285 2322 2137 2057 1982 1905 1818 1726 1635 1549 1462 1361 1248 1141 1060 1006 971 953 929 908 891 889 887 888 890 911 946 1031 1067 1109 1141 1159 1178 1201 1235 1263 1293 1336 1394 1451 1505 1560 1615 1669 1707 1747 1785 1817 1860 1893 1929 1971 2030 2088 2113 2090 2041 2000 1952 1895 1835 1780 1718 1681 1642 1601 1562 1520 1470 1434 1397 1347 1308 1270 1243 1214 1178 1138 1096 1052 1007 970 951 938 918 902 895 897 893 879 865 851 841 846 859 871 874 881 888 896 911 930 963 1004 1039 1054 1082 1117 1161 1215 1278 1344 1393 1419 1445 1486 1516 1549 1576 1591 1589 1584 1580 1588 1596 1607 1614 1632 1640 1629 1628 1658 1694 1718 1751 1789 1846 1886 1914 1938 1966 1989 2013 2038 2071 2100 2104 2107 2116 2126 2129 2125 2125 2145 2181 2214 2239 2270 2311 2346 2378 2404 2431 2470 2516 2544 2570 2608 2679 2742 2794 2856 2941 3007 3058 3069 3050 3028 3005 2981 2951 2928 2901 2882 2857 2823 2786 2763 2746 2730 2716 2689 2670 2656 2644 2636 2635 2622 2599 2578 2561 2550 2541 2524 2503 2484 2462 2443 2432 2418 2407 2399 2392 2390 2389 2388 2395
799 795 803 790 776 759 750 736 722 707 681 656 627 596 582 579 579 581 580 578 577 576 577 577 578 578 580 578 577 579 577 577 578 580 578 578 582 581 579 580 589 605 616 629 650 668 677 695 709 732 767 807 848 881 908 933 957 978 1000 1019 1030 1052 1057 1074 1077 1090 1115 1127 1171 1190 1206 1199 1172 1130 1077 1066 1057 1015 964 975 1007 1045 1098 1146 1198 1253 1304 1335 1369 1399 1444 1475 1512 1538 1560 1597 1633 1660 1695 1733 1786 1818 1877 1911 1934 1960 1961 1954 1962 1949 1992 2019 2035 2007 2029 2071 2111 2158 2190 2180 2161 2129 2106 2107 2111 2124 2135 2136 2130 2128 2130 2134 2140 2148 2144 2148 2158 2166 2174 2189 2196 2216 2229 2264 2312 2364 2393 2383 2359 2331 2304 2281 2258 2271 2283 2301 2317 2317 2324 2348 2371 2410 2448 2468 2481 2499 2498 2490 2480 2472 2481 2492 2505 2502 2485 2477 2472 2467 2457 2441 2434 2424 2420 2436 2463 2484 2503 2519 2533 2545 2544 2529 2520 2507 2494 2475 2454 2434 2413 2390 2381 2370 2357 2340 2321 2304 2288 2276 2264 2260 2259 2258 2262 2282 2310 2324 2324 2310 2311 2318 2327 2336 2344 2343 2356 2367 2377 2391 2405 2417 2416 2406 2394 2387 2392 2404 2418 2410 2378 2359 2353 2346 2335 2335 2351 2387 2398 2402 2410 2417 2419 2421 2420 2401 2336 2261 2224 2190 2161 2141 2131 2136 2146 2152 2155 2164 2202 2250 2245 2198 2163 2134 2130 2134 2124 2117 2127 2148 2188 2238 2266 2277 2274 2269 2254 2228 2204 2181 2136 2124 2113 2105 2112 2117 2095 2065 2040 2020 2005 1994 1980 1960 1948 1942 1928 1919 1904 1886 1876 1869 1858 1844 1831 1822 1814 1807 1795 1778 1756 1743 1736 1722 1700 1681 1676 1672 1667 1664 1655 1641 1631 1631 1626 1606 1588 1577 1565 1540 1523 1536 1547 1568 1609 1652 1688 1712 1741 1770 1791 1820 1842 1851 1828 1789 1775 1778 1777 1779 1784 1814 1864 1959 2037 2083 2126 2158 2154 2122 2106 2057 2000 1937 1892 1848 1819 1809 1793 1757 1730 1731 1758 1789 1806 1813 1810 1782 1749 1766 1798 1879 1964 2055 2141 2221 2295 2367 2438 2511 2577 2615 2614 2557 2525 2480 2418 2352 2335 2298 2249 2216 2091 2026 2008 1961 1865 1781 1690 1596 1493 1374 1246 1137 1066 1026 1009 959 935 909 891 893 892 901 908 934 976 1039 1061 1093 1128 1168 1201 1225 1252 1285 1311 1375 1445 1510 1559 1619 1669 1708 1752 1779 1817 1854 1895 1926 1958 2007 2064 2111 2128 2093 2040 1986 1939 1893 1839 1785 1729 1680 1635 1592 1553 1512 1471 1437 1400 1360 1324 1290 1257 1218 1170 1119 1076 1043 1026 1009 994 963 933 922 922 919 908 900 890 878 863 848 846 851 854 860 866 871 882 899 920 964 990 1001 1026 1070 1119 1171 1214 1290 1345 1375 1409 1436 1484 1547 1565 1577 1570 1555 1548 1546 1553 1561 1573 1587 1585 1583 1613 1639 1659 1688 1734 1791 1843 1874 1878 1892 1917 1946 1979 2005 2032 2041 2047 2051 2062 2071 2081 2083 2089 2110 2145 2176 2207 2244 2301 2342 2387 2408 2423 2447 2465 2494 2522 2581 2666 2724 2784 2838 2922 2986 3040 3083 3075 3049 3018 2991 2963 2934 2907 2882 2851 2826 2788 2765 2757 2744 2728 2696 2660 2640 2623 2611 2601 2592 2582 2574 2566 2557 2548 2536 2521 2506 2490 2475 2450 2433 2422 2409 2398 2393 2395 2394 2401
852 865 861 851 835 817 803 792 772 743 715 677 642 611 598 586 581 581 581 580 580 579 578 578 579 580 579 580 581 580 579 577 576 577 580 579 580 582 582 593 616 640 649 660 683 709 738 759 768 793 838 885 928 949 952 968 995 1035 1066 1108 1135 1151 1155 1175 1199 1214 1226 1243 1266 1278 1277 1255 1207 1154 1116 1098 1064 999 998 1037 1082 1114 1163 1208 1260 1353 1392 1410 1424 1446 1478 1521 1573 1593 1616 1638 1668 1707 1758 1794 1838 1875 1903 1930 1982 2003 2023 2023 2024 2045 2077 2107 2110 2123 2150 2168 2170 2164 2148 2137 2120 2089 2084 2090 2107 2125 2128 2126 2132 2136 2148 2158 2171 2177 2176 2185 2199 2222 2228 2252 2261 2296 2384 2398 2408 2393 2381 2360 2336 2319 2324 2337 2339 2345 2361 2368 2378 2391 2417 2454 2467 2483 2487 2479 2475 2464 2454 2447 2450 2460 2473 2481 2481 2476 2457 2445 2440 2442 2431 2411 2401 2401 2407 2422 2451 2480 2499 2512 2533 2569 2577 2569 2557 2539 2527 2513 2492 2458 2436 2423 2403 2377 2368 2354 2337 2324 2308 2287 2272 2265 2258 2252 2263 2268 2273 2290 2297 2298 2293 2290 2292 2295 2299 2307 2309 2314 2323 2337 2345 2357 2365 2362 2353 2345 2342 2348 2363 2368 2352 2331 2323 2312 2307 2307 2317 2342 2366 2377 2387 2392 2397 2397 2386 2356 2320 2262 2214 2179 2153 2132 2123 2123 2126 2134 2134 2139 2160 2202 2233 2212 2168 2135 2122 2119 2109 2093 2090 2107 2146 2202 2226 2231 2239 2236 2221 2201 2178 2148 2111 2097 2081 2068 2078 2089 2096 2082 2051 2026 2009 1996 1978 1967 1958 1946 1932 1920 1907 1897 1889 1880 1868 1850 1833 1818 1803 1792 1775 1760 1744 1735 1726 1712 1699 1685 1676 1668 1657 1650 1637 1626 1622 1622 1619 1614 1600 1585 1567 1548 1539 1557 1583 1627 1673 1735 1770 1799 1831 1849 1869 1906 1922 1891 1848 1809 1797 1802 1800 1804 1823 1903 1963 2050 2077 2138 2170 2210 2219 2203 2170 2121 2054 1978 1913 1859 1854 1839 1825 1799 1793 1799 1814 1823 1827 1832 1816 1798 1776 1803 1840 1876 1982 2075 2164 2248 2327 2402 2477 2550 2603 2619 2596 2554 2500 2445 2379 2340 2301 2254 2219 2156 2068 2030 1986 1949 1921 1838 1754 1655 1537 1403 1264 1153 1086 1060 1022 981 952 914 895 895 896 902 916 948 976 1041 1076 1102 1132 1160 1199 1237 1272 1318 1368 1426 1481 1531 1593 1638 1690 1740 1785 1829 1872 1902 1933 1963 1995 2043 2091 2145 2157 2109 2048 1981 1929 1878 1830 1781 1724 1684 1642 1599 1553 1511 1469 1428 1384 1344 1313 1274 1244 1211 1166 1120 1102 1108 1101 1077 1051 1021 991 970 958 943 929 918 906 891 880 864 859 863 866 865 870 872 873 883 890 914 932 948 982 1030 1090 1140 1185 1251 1320 1389 1425 1437 1481 1554 1568 1569 1559 1543 1525 1515 1517 1519 1534 1542 1536 1547 1583 1597 1617 1657 1708 1769 1811 1824 1818 1834 1872 1919 1950 1969 1980 1976 1978 1985 2002 2023 2044 2056 2069 2088 2119 2157 2186 2247 2335 2356 2377 2393 2416 2431 2451 2468 2488 2588 2646 2709 2767 2831 2899 2965 3017 3077 3093 3067 3029 2996 2969 2937 2905 2874 2845 2821 2790 2766 2762 2752 2734 2706 2673 2648 2623 2607 2597 2588 2584 2573 2572 2563 2558 2551 2541 2531 2517 2496 2471 2455 2440 2432 2421 2408 2406 2404 2408
925 936 925 903 864 843 826 797 766 732 695 667 653 633 605 586 581 580 580 580 580 580 579 578 580 580 579 580 581 580 579 577 577 579 581 580 582 590 610 638 665 688 690 692 710 741 786 816 852 880 919 947 983 1001 999 1006 1032 1099 1145 1176 1196 1221 1241 1268 1289 1287 1293 1316 1337 1353 1330 1292 1242 1184 1155 1108 1036 1035 1070 1106 1142 1184 1229 1303 1350 1415 1452 1475 1484 1500 1513 1557 1601 1651 1681 1703 1731 1768 1817 1865 1901 1931 1963 1990 2037 2065 2100 2105 2089 2124 2148 2159 2156 2152 2152 2160 2153 2136 2121 2108 2090 2072 2075 2088 2112 2122 2126 2125 2146 2166 2180 2200 2211 2221 2225 2238 2250 2289 2328 2367 2395 2403 2390 2375 2354 2344 2332 2333 2355 2366 2393 2400 2413 2419 2436 2450 2455 2469 2486 2497 2501 2486 2459 2433 2424 2418 2424 2429 2434 2448 2457 2454 2448 2439 2422 2407 2401 2400 2391 2380 2376 2381 2390 2408 2433 2453 2471 2479 2538 2611 2618 2640 2644 2653 2652 2611 2599 2574 2533 2519 2496 2461 2435 2419 2397 2381 2368 2338 2322 2312 2286 2265 2265 2265 2266 2270 2273 2281 2282 2278 2274 2268 2269 2269 2271 2272 2275 2277 2285 2297 2303 2308 2312 2317 2310 2306 2317 2329 2323 2303 2293 2291 2291 2294 2296 2317 2339 2357 2367 2374 2382 2374 2342 2311 2292 2261 2202 2163 2139 2125 2121 2113 2112 2111 2112 2119 2130 2160 2202 2201 2163 2130 2110 2110 2096 2076 2066 2075 2102 2146 2174 2183 2182 2173 2168 2146 2127 2100 2069 2048 2038 2043 2049 2054 2065 2073 2057 2037 2019 1989 1973 1962 1951 1939 1925 1916 1908 1896 1884 1875 1860 1845 1830 1815 1798 1776 1761 1750 1731 1720 1714 1700 1690 1681 1674 1661 1652 1641 1629 1619 1617 1616 1615 1610 1599 1584 1574 1558 1567 1589 1623 1674 1736 1785 1827 1862 1891 1914 1930 1938 1931 1893 1866 1855 1852 1853 1870 1884 1925 1976 2028 2081 2128 2180 2251 2292 2309 2278 2233 2169 2088 2003 1920 1893 1873 1857 1847 1835 1844 1848 1854 1860 1857 1850 1840 1822 1803 1820 1867 1901 2010 2107 2200 2289 2376 2457 2532 2599 2637 2646 2582 2524 2479 2411 2358 2317 2272 2207 2140 2087 2056 2022 1985 1953 1923 1905 1899 1715 1586 1440 1294 1179 1109 1074 1035 998 966 937 918 902 909 914 932 963 1014 1071 1119 1148 1176 1200 1235 1280 1311 1345 1405 1459 1512 1565 1616 1660 1706 1777 1823 1873 1914 1951 1989 2020 2056 2097 2141 2189 2189 2139 2093 2036 1972 1895 1829 1779 1739 1704 1666 1634 1597 1552 1505 1458 1406 1349 1305 1276 1248 1222 1187 1157 1152 1166 1154 1124 1094 1063 1028 998 984 973 959 941 925 909 900 880 865 874 887 891 887 889 879 878 881 893 903 912 940 991 1034 1081 1114 1129 1235 1344 1374 1428 1488 1524 1533 1533 1526 1511 1490 1477 1472 1475 1491 1495 1497 1514 1532 1550 1581 1623 1669 1729 1755 1761 1768 1803 1846 1881 1897 1909 1915 1919 1927 1943 1960 1990 2018 2042 2050 2060 2090 2148 2208 2282 2325 2345 2349 2367 2405 2422 2439 2459 2482 2549 2622 2700 2758 2818 2888 2958 3005 3084 3098 3071 3035 3000 2968 2937 2907 2878 2852 2829 2805 2783 2769 2749 2726 2706 2687 2667 2644 2622 2600 2589 2587 2585 2583 2578 2574 2566 2557 2550 2541 2525 2511 2501 2495 2489 2472 2462 2442 2432 2430
1006 1008 982 952 919 882 841 802 762 711 679 673 661 626 608 583 579 579 581 582 581 581 579 577 580 580 580 583 584 581 582 581 581 582 584 597 616 642 667 686 711 729 731 727 746 788 829 882 917 941 961 981 1014 1044 1042 1063 1121 1171 1202 1214 1236 1270 1304 1328 1325 1318 1330 1356 1376 1363 1323 1273 1225 1179 1141 1089 1075 1096 1117 1170 1205 1250 1299 1355 1405 1455 1489 1528 1549 1544 1558 1593 1650 1688 1721 1749 1789 1842 1880 1927 1970 1996 2013 2031 2062 2095 2117 2131 2144 2133 2126 2124 2123 2118 2108 2104 2086 2084 2079 2072 2066 2061 2064 2073 2075 2077 2097 2121 2152 2190 2217 2243 2264 2267 2277 2334 2369 2364 2361 2354 2349 2333 2318 2306 2298 2287 2312 2351 2388 2408 2421 2452 2473 2482 2502 2484 2500 2524 2524 2504 2474 2440 2413 2394 2388 2394 2407 2422 2430 2438 2439 2424 2408 2394 2378 2366 2357 2349 2346 2352 2354 2358 2369 2401 2417 2428 2435 2463 2547 2565 2595 2632 2623 2652 2682 2691 2652 2623 2591 2563 2535 2510 2494 2464 2435 2406 2392 2382 2367 2342 2311 2297 2275 2259 2260 2261 2259 2265 2272 2273 2275 2270 2257 2248 2247 2243 2243 2244 2249 2252 2254 2255 2265 2274 2277 2277 2278 2286 2289 2280 2278 2285 2286 2287 2283 2301 2319 2339 2358 2370 2382 2380 2316 2278 2249 2220 2185 2141 2123 2114 2109 2109 2103 2091 2087 2098 2106 2120 2163 2179 2150 2110 2090 2089 2080 2058 2043 2043 2062 2092 2112 2123 2121 2119 2110 2096 2071 2050 2026 2009 2018 2028 2029 2027 2029 2032 2035 2038 2030 2004 1976 1961 1950 1935 1919 1906 1897 1889 1877 1867 1852 1837 1825 1815 1807 1795 1777 1764 1740 1720 1711 1704 1696 1688 1679 1671 1661 1650 1638 1623 1615 1613 1610 1606 1600 1588 1578 1571 1586 1602 1644 1709 1746 1804 1857 1905 1940 1962 1974 1971 1940 1929 1916 1923 1930 1919 1938 1954 1985 2008 2046 2103 2186 2271 2307 2376 2381 2347 2282 2194 2099 1986 1954 1919 1905 1891 1884 1880 1880 1882 1888 1884 1874 1862 1849 1829 1834 1857 1897 1935 2050 2152 2252 2349 2441 2521 2588 2640 2676 2633 2563 2501 2434 2358 2323 2291 2245 2183 2102 2069 2047 2022 1997 1959 1936 1920 1891 1869 1629 1475 1325 1205 1129 1091 1065 1020 990 959 934 915 931 937 950 972 1047 1123 1154 1189 1217 1237 1262 1307 1347 1403 1446 1508 1557 1595 1642 1689 1742 1804 1864 1913 1965 2004 2038 2084 2124 2171 2207 2245 2231 2182 2125 2072 2015 1944 1864 1822 1782 1754 1723 1680 1631 1580 1526 1472 1414 1370 1335 1304 1273 1243 1211 1188 1195 1219 1202 1166 1131 1079 1038 1024 1016 1000 988 968 960 979 995 979 967 963 963 967 977 964 935 901 887 888 897 902 914 952 986 1021 1047 1067 1188 1306 1341 1392 1448 1472 1489 1495 1496 1479 1453 1437 1428 1442 1446 1448 1445 1464 1477 1508 1549 1587 1634 1673 1683 1702 1728 1764 1806 1817 1829 1840 1844 1857 1879 1907 1931 1960 1992 2019 2033 2059 2104 2153 2205 2265 2302 2314 2318 2333 2353 2389 2421 2450 2501 2549 2622 2682 2770 2825 2873 2950 3014 3070 3098 3081 3049 3009 2975 2943 2913 2889 2866 2840 2814 2794 2771 2747 2729 2714 2696 2673 2656 2636 2618 2601 2590 2589 2588 2587 2583 2578 2571 2563 2562 2567 2577 2562 2562 2581 2597 2595 2588 2523 2480
