ncols         375
nrows         60
xllcorner     -73.15875
yllcorner     -51.0385323075
cellsize      0.00083232081
NODATA_value  -9999
1248 1296 1356 1408 1458 1457 1465 1485 1521 1540 1546 1482 1421 1402 1385 1357 1318 1318 1318 1318 1318 1318 1318 1318 1318 1318 1318 1461 1319 1353 1448 1473 1425 1386 1361 1362 1368 1367 1367 1378 1380 1383 1402 1318 1392 1340 1340 1340 1342 1411 1560 1340 1340 1340 1509 1583 1568 1589 1637 1662 1678 1780 1791 1837 1875 1909 1965 1907 1804 1738 1709 1696 1706 1728 1697 1613 1575 1590 1545 1513 1507 1533 1569 1648 1548 1457 1403 1382 1386 1370 1360 1351 1373 1378 1418 1453 1454 1475 1448 1424 1388 1334 1266 1237 1189 1162 1118 1084 1038 1000 961 937 907 866 839 825 798 765 740 716 694 690 664 663 663 675 687 703 720 742 754 767 791 810 818 838 856 868 893 915 935 971 994 1023 1041 1079 1099 1137 1148 1170 1205 1234 1261 1282 1301 1323 1346 1368 1391 1415 1453 1509 1600 1627 1667 1676 1674 1641 1619 1604 1568 1530 1503 1475 1455 1446 1418 1397 1397 1386 1380 1355 1354 1328 1297 1277 1264 1246 1226 1206 1188 1169 1147 1158 1147 1151 1149 1159 1177 1200 1201 1199 1191 1188 1188 1200 1201 1212 1235 1259 1292 1309 1341 1377 1409 1439 1477 1508 1549 1596 1658 1707 1744 1776 1815 1852 1877 1799 1760 1723 1674 1610 1516 1431 1366 1380 1355 1346 1331 1317 1297 1283 1317 1333 1342 1312 1204 1238 1273 1285 1309 1341 1357 1347 1306 1246 1215 1182 1142 1108 1097 1092 1089 1118 1098 1054 1011 963 940 910 856 832 784 758 734 703 672 652 617 593 558 546 510 484 463 443 426 406 390 369 356 333 313 299 292 285 281 266 262 259 250 237 227 220 221 219 216 209 209 209 211 226 228 211 211 215 209 173 140 144 142 145 142 136 137 137 132 134 136 125 108 86 76 72 72 72 72 72 72 72 72 72 72 72 72 72 75 90 94 101 114 117 85 72 72 72 94 123 125 108 103 106 108 104 104 103 121 136 141 147 151 153 150 144 130
1216 1262 1300 1333 1376 1412 1428 1446 1488 1515 1520 1503 1441 1423 1409 1380 1349 1320 1318 1318 1318 1318 1318 1318 1318 1318 1318 1318 1369 1443 1523 1448 1387 1362 1374 1354 1354 1357 1368 1357 1351 1375 1387 1423 1340 1340 1401 1583 1710 1811 1663 1547 1390 1394 1485 1550 1624 1568 1568 1663 1685 1746 1757 1734 1780 1827 1877 1891 1804 1755 1733 1719 1718 1719 1699 1649 1625 1627 1605 1591 1591 1609 1658 1680 1632 1553 1499 1470 1465 1449 1436 1436 1469 1475 1508 1531 1565 1581 1596 1635 1535 1453 1394 1289 1238 1221 1196 1109 1072 1037 1000 961 934 904 867 832 808 781 758 724 693 684 670 665 664 670 684 693 708 727 750 757 775 782 811 834 863 884 904 926 945 968 994 1024 1050 1073 1099 1124 1148 1176 1203 1230 1256 1280 1305 1330 1355 1380 1405 1429 1452 1511 1612 1618 1641 1657 1656 1634 1606 1609 1505 1485 1461 1453 1428 1409 1397 1380 1367 1361 1354 1341 1335 1311 1289 1274 1262 1251 1240 1222 1200 1179 1147 1147 1147 1162 1166 1155 1147 1171 1190 1182 1178 1176 1169 1169 1167 1174 1193 1215 1228 1283 1313 1351 1379 1408 1443 1499 1558 1606 1642 1695 1731 1755 1793 1828 1886 1842 1786 1717 1651 1572 1478 1382 1331 1336 1329 1306 1290 1274 1256 1232 1182 1209 1201 1190 1126 1072 1087 1058 1128 1120 1206 1233 1250 1247 1232 1186 1114 1034 1026 1010 1012 1003 1017 984 948 921 899 849 816 779 746 729 686 667 635 616 585 562 523 500 477 461 440 426 409 395 373 366 338 328 310 301 286 280 269 257 254 246 242 236 230 223 222 212 213 209 209 209 209 219 225 221 218 214 204 182 157 145 144 137 137 137 138 137 128 123 114 111 101 72 72 72 72 72 72 72 72 72 72 72 72 72 72 74 72 72 77 84 75 72 72 72 72 98 127 139 132 122 111 107 106 105 104 108 122 134 152 157 158 149 132 119 109
1162 1195 1218 1255 1311 1356 1365 1391 1440 1513 1550 1563 1486 1444 1414 1389 1362 1341 1318 1318 1318 1318 1318 1318 1318 1318 1318 1318 1376 1444 1488 1403 1354 1338 1354 1343 1345 1337 1334 1330 1349 1374 1380 1408 1400 1354 1498 1746 1794 1827 1782 1637 1521 1468 1497 1557 1594 1568 1588 1622 1653 1699 1694 1694 1694 1780 1826 1780 1764 1766 1754 1734 1720 1711 1695 1675 1664 1664 1662 1662 1669 1687 1714 1712 1684 1640 1594 1557 1542 1519 1505 1517 1534 1573 1588 1617 1626 1638 1683 1680 1676 1598 1475 1426 1369 1286 1235 1180 1133 1084 1042 998 965 925 893 850 810 777 752 727 697 677 665 657 665 668 673 685 705 724 746 750 760 760 789 794 824 838 892 910 933 951 997 1026 1055 1083 1111 1139 1168 1200 1234 1265 1294 1314 1331 1352 1376 1403 1433 1457 1480 1526 1582 1593 1627 1668 1672 1638 1574 1519 1503 1463 1450 1439 1422 1402 1391 1373 1356 1361 1345 1329 1316 1299 1285 1268 1250 1243 1240 1235 1229 1210 1184 1147 1147 1147 1147 1147 1147 1162 1159 1164 1156 1153 1142 1141 1149 1159 1171 1184 1215 1254 1296 1340 1358 1391 1428 1491 1526 1577 1616 1675 1724 1755 1787 1823 1892 1901 1794 1719 1647 1549 1438 1337 1315 1310 1281 1285 1262 1233 1207 1165 1150 1127 1119 1109 1059 1027 1004 989 995 1008 1042 1161 1192 1227 1246 1217 1151 1061 1018 990 976 958 945 929 901 876 832 793 761 733 706 684 659 638 603 575 553 525 495 472 455 444 424 408 391 376 366 350 327 315 303 292 279 263 256 251 241 234 230 232 235 230 221 217 209 209 214 226 217 214 225 231 233 226 214 191 174 157 142 145 146 139 130 130 133 127 109 103 105 91 72 72 72 72 72 72 72 72 72 72 72 72 72 72 72 72 72 72 72 72 72 72 102 123 143 142 138 132 137 126 119 108 107 110 122 133 138 136 133 122 109 99 85
1111 1135 1164 1189 1228 1295 1342 1387 1436 1504 1540 1582 1511 1462 1431 1415 1383 1354 1333 1318 1318 1318 1318 1318 1318 1318 1318 1318 1326 1455 1425 1395 1333 1313 1312 1321 1316 1306 1297 1296 1320 1352 1371 1413 1422 1436 1611 1698 1758 1730 1687 1650 1572 1519 1524 1562 1597 1614 1634 1644 1656 1674 1673 1712 1718 1743 1777 1778 1770 1792 1765 1736 1722 1711 1698 1689 1692 1700 1708 1717 1728 1738 1761 1770 1767 1737 1687 1639 1611 1586 1580 1607 1653 1688 1703 1679 1712 1727 1725 1737 1734 1711 1548 1484 1473 1399 1325 1271 1208 1188 1082 1042 985 946 909 857 817 792 756 731 704 677 661 657 657 658 668 686 697 714 725 733 750 759 780 801 821 855 876 924 949 964 985 1025 1062 1095 1127 1161 1196 1232 1269 1306 1342 1365 1385 1404 1427 1456 1479 1503 1549 1581 1592 1587 1640 1711 1718 1660 1658 1526 1515 1462 1443 1434 1420 1409 1389 1389 1370 1356 1349 1326 1309 1302 1290 1275 1257 1249 1246 1239 1229 1216 1201 1184 1166 1147 1149 1152 1153 1158 1154 1154 1150 1141 1129 1130 1129 1132 1145 1165 1189 1232 1273 1316 1360 1387 1434 1487 1517 1552 1596 1618 1693 1721 1746 1793 1898 1773 1769 1736 1672 1565 1425 1315 1340 1290 1270 1269 1234 1208 1203 1170 1146 1120 1104 1063 1015 990 981 955 948 947 984 1068 1128 1173 1186 1177 1154 1106 1046 1002 971 933 904 885 863 829 791 753 722 697 673 646 623 593 567 539 511 491 470 446 437 415 405 393 380 356 346 337 321 309 295 282 265 251 247 241 240 234 234 227 228 227 223 216 212 211 210 210 210 210 229 236 227 219 219 215 193 173 165 152 152 149 140 137 128 123 107 84 80 80 72 72 72 72 72 72 72 72 72 72 72 72 72 72 72 72 72 72 72 72 72 88 112 129 137 138 130 135 129 123 118 120 112 106 108 115 105 96 84 75 72 72 72
1081 1111 1141 1179 1218 1277 1335 1395 1433 1488 1531 1550 1518 1475 1439 1418 1408 1380 1365 1349 1332 1319 1318 1318 1318 1318 1318 1332 1381 1526 1419 1370 1322 1294 1266 1266 1272 1265 1265 1272 1289 1316 1341 1395 1456 1344 1419 1513 1556 1587 1593 1577 1555 1523 1532 1563 1612 1659 1650 1652 1667 1661 1700 1729 1717 1720 1720 1741 1783 1808 1737 1740 1728 1717 1704 1692 1711 1740 1759 1783 1794 1800 1844 1868 1874 1859 1795 1728 1678 1658 1664 1697 1763 1748 1781 1775 1816 1805 1801 1812 1770 1685 1589 1525 1501 1490 1466 1388 1372 1253 1194 1098 1008 968 928 871 836 818 780 749 721 691 663 672 663 657 667 674 678 697 715 732 745 759 780 798 824 862 888 911 945 979 1008 1032 1068 1103 1138 1174 1211 1249 1289 1328 1368 1403 1438 1466 1466 1491 1524 1540 1546 1573 1639 1649 1662 1657 1711 1669 1637 1577 1537 1483 1456 1446 1435 1410 1403 1391 1384 1358 1355 1338 1320 1308 1300 1289 1286 1274 1272 1254 1230 1204 1190 1189 1181 1159 1146 1146 1151 1141 1149 1134 1123 1126 1112 1100 1101 1118 1127 1136 1163 1194 1243 1284 1324 1363 1391 1415 1445 1484 1511 1550 1629 1663 1687 1721 1785 1885 1782 1774 1722 1599 1500 1418 1376 1295 1270 1275 1267 1211 1203 1162 1143 1104 1053 998 937 947 924 912 925 936 926 962 1087 1127 1135 1120 1083 1069 1039 1003 949 907 878 845 809 777 752 728 692 667 629 602 587 556 534 505 475 462 450 427 417 405 389 375 356 351 333 319 303 289 287 270 254 245 239 232 228 230 234 235 233 229 224 214 210 210 210 210 211 219 227 246 236 220 232 237 208 199 177 170 159 153 145 118 107 83 73 72 72 72 72 72 72 72 72 72 72 72 72 72 72 72 72 72 72 72 72 72 72 72 72 90 113 126 127 126 125 122 124 111 112 106 98 78 78 77 72 72 72 72 72 72 72
1068 1103 1139 1179 1220 1286 1352 1407 1456 1493 1534 1534 1536 1470 1429 1408 1396 1392 1413 1410 1378 1351 1328 1318 1318 1318 1318 1332 1365 1412 1402 1340 1295 1255 1230 1231 1232 1236 1237 1246 1264 1289 1331 1376 1240 1340 1238 1232 1338 1418 1474 1491 1493 1502 1523 1551 1591 1631 1662 1635 1651 1677 1708 1716 1739 1717 1717 1717 1717 1721 1741 1744 1742 1736 1717 1701 1733 1786 1800 1842 1844 1836 1935 1959 1992 1970 1884 1798 1737 1711 1719 1741 1760 1768 1769 1778 1789 1766 1750 1729 1695 1647 1594 1564 1554 1524 1461 1506 1445 1352 1241 1135 1042 991 959 900 844 817 780 749 726 691 667 660 650 644 650 669 675 690 707 721 731 745 764 793 815 835 864 890 918 965 1026 1047 1068 1104 1139 1176 1215 1254 1292 1331 1371 1411 1452 1496 1525 1566 1534 1532 1556 1578 1609 1629 1659 1665 1673 1646 1604 1608 1543 1536 1462 1452 1444 1436 1412 1399 1391 1375 1363 1352 1340 1328 1323 1325 1317 1295 1271 1239 1220 1184 1160 1156 1172 1163 1147 1135 1128 1129 1125 1114 1096 1084 1081 1083 1080 1087 1097 1108 1138 1172 1213 1245 1274 1319 1319 1340 1366 1406 1448 1487 1517 1585 1648 1686 1763 1847 1848 1817 1747 1651 1579 1515 1468 1400 1371 1303 1275 1250 1246 1217 1153 1139 1060 1025 943 934 913 912 922 921 909 921 1038 1077 1094 1069 1012 994 982 966 935 904 854 815 764 732 708 686 661 630 606 581 552 531 513 476 450 434 425 408 398 390 377 365 353 338 326 317 299 285 265 254 241 238 225 229 215 227 229 232 238 238 240 230 214 215 223 212 215 220 232 245 244 225 222 216 205 191 179 187 168 156 136 107 97 79 74 72 72 72 72 72 72 72 72 72 72 72 72 72 72 72 72 72 72 72 72 72 72 80 90 103 114 116 111 106 105 102 86 75 72 72 72 72 72 72 72 72 72 72 72 72 72
1066 1102 1139 1180 1223 1280 1338 1388 1439 1484 1524 1524 1503 1444 1403 1391 1396 1391 1452 1486 1406 1369 1355 1346 1328 1318 1322 1329 1318 1326 1304 1281 1241 1201 1190 1198 1207 1199 1187 1195 1229 1271 1269 1155 1252 1184 1102 1102 1179 1274 1353 1410 1448 1468 1502 1530 1566 1604 1644 1635 1651 1680 1710 1714 1722 1720 1731 1722 1717 1717 1717 1729 1733 1751 1717 1750 1748 1811 1838 1841 1801 1832 2043 2010 2047 2019 1896 1818 1768 1740 1731 1733 1747 1751 1746 1740 1731 1707 1687 1659 1626 1601 1570 1565 1600 1623 1554 1512 1442 1343 1271 1194 1079 1019 980 930 872 827 795 770 729 695 655 639 637 639 649 652 662 676 694 715 736 751 780 799 826 856 871 898 924 947 1002 1042 1061 1088 1130 1174 1210 1246 1283 1321 1360 1404 1449 1484 1506 1544 1523 1543 1546 1585 1568 1605 1650 1655 1661 1645 1661 1615 1586 1525 1516 1453 1449 1433 1423 1407 1405 1392 1381 1373 1360 1348 1356 1356 1336 1308 1267 1251 1224 1201 1175 1160 1151 1147 1131 1127 1113 1105 1099 1089 1084 1065 1061 1053 1054 1055 1070 1090 1108 1147 1178 1204 1223 1229 1241 1283 1336 1371 1419 1460 1505 1550 1632 1674 1760 1828 1835 1801 1748 1691 1611 1531 1463 1412 1383 1367 1345 1329 1311 1277 1217 1193 1152 1078 973 948 937 915 896 891 895 899 934 1014 1038 985 965 938 920 900 871 846 803 772 729 695 666 630 608 593 568 545 523 492 475 454 429 419 403 394 382 373 369 355 340 334 325 299 279 270 250 244 239 235 222 215 206 208 213 220 225 227 222 219 216 219 206 206 213 230 236 244 235 223 212 192 187 170 162 153 142 127 107 88 72 79 84 89 72 72 73 73 73 72 72 72 72 72 72 72 72 72 72 72 72 72 72 72 72 72 80 101 103 99 98 79 72 72 72 72 72 72 72 72 72 72 72 72 72 72 72 72 72
1061 1097 1134 1176 1219 1266 1313 1362 1411 1460 1486 1477 1448 1389 1373 1373 1381 1386 1415 1432 1410 1388 1377 1369 1352 1326 1315 1334 1274 1237 1223 1213 1157 1154 1140 1144 1127 1128 1153 1130 1170 1219 1209 1137 1102 1102 1102 1102 1122 1226 1316 1376 1411 1436 1471 1510 1540 1575 1607 1628 1656 1714 1722 1714 1717 1719 1721 1717 1717 1717 1717 1717 1717 1717 1717 1717 1717 1717 1722 1717 1717 1757 1978 1937 1937 1951 1892 1832 1786 1751 1728 1719 1721 1717 1704 1685 1663 1644 1640 1600 1572 1576 1533 1620 1528 1506 1490 1445 1414 1385 1250 1237 1166 1077 1016 970 910 853 806 766 754 693 663 635 631 639 635 637 653 672 675 700 720 733 766 792 818 831 849 890 917 952 999 1026 1066 1082 1128 1163 1199 1234 1269 1309 1352 1395 1435 1465 1469 1510 1526 1576 1586 1560 1589 1596 1615 1622 1631 1637 1657 1617 1584 1575 1533 1526 1476 1445 1435 1431 1420 1417 1406 1393 1382 1377 1381 1373 1357 1325 1285 1275 1245 1229 1202 1164 1132 1115 1120 1109 1097 1088 1077 1064 1046 1032 1030 1024 1023 1031 1057 1066 1072 1093 1126 1145 1167 1190 1224 1274 1310 1366 1407 1445 1491 1524 1578 1658 1785 1839 1838 1813 1742 1654 1554 1472 1430 1398 1367 1341 1322 1343 1300 1312 1290 1242 1225 1168 1045 992 973 917 882 869 866 884 913 952 982 963 939 909 889 861 825 787 750 722 693 655 622 602 580 556 538 512 491 469 441 426 411 397 382 370 367 357 361 353 346 323 306 291 272 254 244 231 231 226 215 213 203 200 194 203 208 212 200 196 195 205 205 205 208 215 228 232 226 210 190 173 166 154 149 125 118 105 72 72 72 72 72 72 72 72 72 72 72 72 72 72 72 72 72 72 72 72 72 72 72 72 72 72 72 72 72 76 83 73 72 72 72 72 72 72 72 72 72 72 72 72 72 72 72 72 72 72 72
1045 1082 1118 1158 1198 1246 1295 1347 1394 1444 1461 1420 1383 1352 1328 1321 1319 1324 1337 1383 1407 1402 1404 1373 1346 1302 1262 1232 1204 1181 1152 1110 1099 1112 1118 1117 1104 1103 1120 1112 1113 1142 1164 1102 1102 1102 1102 1102 1137 1239 1310 1351 1373 1403 1444 1481 1513 1549 1588 1625 1660 1688 1706 1709 1720 1724 1717 1719 1717 1717 1717 1717 1717 1717 1717 1717 1717 1717 1717 1717 1721 1797 1940 2081 1949 2031 1926 1852 1798 1751 1719 1695 1687 1685 1671 1642 1597 1558 1644 1543 1497 1525 1489 1396 1385 1367 1377 1362 1342 1330 1296 1218 1211 1185 1109 1030 939 878 827 773 752 733 673 646 630 623 627 644 648 651 667 701 717 727 752 772 794 804 814 866 897 938 984 1019 1051 1086 1116 1152 1190 1227 1265 1304 1346 1388 1431 1464 1502 1532 1529 1556 1582 1650 1580 1580 1577 1580 1610 1626 1620 1596 1601 1542 1525 1552 1502 1480 1471 1460 1445 1428 1416 1412 1400 1386 1380 1372 1362 1361 1331 1299 1257 1235 1223 1161 1136 1112 1096 1090 1081 1057 1043 1028 1007 1006 1002 1009 1006 1012 1029 1042 1055 1072 1094 1113 1137 1170 1201 1242 1277 1317 1346 1371 1416 1477 1529 1612 1746 1832 1815 1771 1715 1645 1536 1477 1437 1383 1340 1307 1279 1254 1230 1247 1299 1296 1285 1188 1134 1044 970 919 873 858 865 877 913 941 955 929 896 865 848 819 769 750 709 670 639 606 573 563 551 531 503 480 453 435 418 398 386 366 360 345 343 347 351 343 333 308 298 288 277 246 240 230 224 217 204 199 196 189 189 190 184 183 180 182 191 196 191 197 203 203 209 202 201 193 183 155 140 121 108 90 87 72 72 72 72 72 72 72 72 72 72 72 72 72 72 72 72 72 72 72 72 72 72 72 72 72 72 72 72 72 89 98 104 92 72 72 72 72 72 72 72 72 72 72 72 72 72 72 72 72 74 77 83
1019 1056 1094 1131 1170 1217 1265 1313 1358 1406 1417 1383 1334 1300 1270 1268 1265 1273 1285 1328 1343 1325 1317 1289 1233 1215 1178 1157 1124 1081 1053 1068 1086 1088 1099 1097 1108 1112 1106 1111 1101 1098 1115 1111 1109 1102 1102 1102 1209 1273 1313 1323 1334 1377 1415 1447 1472 1514 1572 1630 1682 1694 1711 1709 1737 1751 1717 1717 1717 1717 1717 1717 1717 1717 1717 1717 1717 1717 1721 1717 1717 1733 1830 1862 1870 1988 1925 1862 1799 1746 1703 1669 1652 1647 1660 1621 1556 1494 1444 1415 1406 1390 1358 1325 1311 1302 1291 1275 1257 1224 1203 1190 1187 1183 1124 1049 987 889 820 785 749 725 682 649 627 623 630 638 648 650 664 690 705 721 743 758 790 802 831 863 899 936 981 1010 1046 1078 1112 1148 1186 1224 1261 1300 1340 1380 1419 1457 1500 1525 1540 1570 1599 1580 1606 1629 1575 1575 1600 1614 1647 1617 1633 1566 1542 1531 1521 1510 1491 1466 1465 1452 1433 1417 1411 1400 1373 1361 1353 1357 1357 1339 1319 1273 1219 1191 1155 1128 1106 1088 1064 1041 1024 1006 991 982 984 987 985 985 1004 1008 1014 1032 1047 1079 1109 1155 1169 1191 1242 1272 1319 1362 1378 1423 1474 1563 1657 1790 1731 1701 1675 1641 1588 1552 1472 1425 1361 1313 1280 1220 1204 1206 1210 1248 1274 1220 1165 1133 964 903 851 838 834 857 884 921 920 899 864 834 808 775 748 725 691 647 613 588 541 515 500 491 479 457 435 414 394 380 363 348 325 332 326 324 335 331 319 310 300 286 269 254 233 218 213 193 187 188 185 181 180 181 176 171 171 170 183 182 178 184 182 182 177 177 170 163 151 100 110 103 99 95 72 72 72 72 72 72 72 72 72 72 72 72 72 72 72 72 72 72 72 72 72 72 72 72 72 72 72 72 72 88 104 109 105 90 72 72 72 72 72 72 72 72 72 72 72 72 72 72 72 86 95 113 124
986 1025 1065 1102 1140 1183 1226 1269 1313 1347 1371 1338 1295 1256 1216 1210 1205 1216 1227 1259 1291 1275 1261 1233 1205 1177 1148 1099 1080 1066 1053 1061 1069 1076 1083 1081 1080 1076 1072 1073 1078 1075 1095 1102 1125 1137 1169 1188 1208 1227 1257 1278 1296 1360 1359 1432 1423 1471 1544 1620 1715 1712 1747 1763 1734 1740 1751 1717 1717 1717 1717 1717 1717 1717 1717 1717 1717 1717 1717 1717 1717 1717 1724 1801 1830 1888 1890 1846 1790 1739 1688 1642 1608 1590 1565 1526 1498 1441 1420 1377 1368 1339 1316 1293 1272 1269 1256 1226 1192 1174 1155 1139 1129 1125 1109 1054 947 866 817 782 756 698 673 644 638 624 617 622 628 640 652 671 688 715 734 758 791 806 841 869 901 941 990 1022 1037 1071 1107 1142 1177 1214 1251 1289 1328 1366 1405 1442 1482 1522 1541 1544 1562 1580 1618 1625 1580 1575 1612 1614 1641 1674 1624 1641 1589 1573 1565 1517 1494 1470 1456 1439 1435 1421 1410 1389 1385 1372 1345 1345 1351 1355 1338 1297 1254 1229 1185 1155 1128 1102 1076 1053 1022 1014 1003 976 963 967 965 961 969 975 987 1002 1010 1036 1076 1100 1129 1161 1218 1225 1253 1287 1309 1365 1400 1450 1573 1651 1651 1626 1611 1594 1577 1552 1526 1509 1422 1375 1316 1262 1241 1208 1169 1194 1177 1163 1153 1049 951 894 851 823 813 823 849 883 899 868 829 808 775 750 711 684 659 636 596 559 525 491 463 449 432 425 408 381 374 360 336 325 310 309 315 315 307 303 302 300 296 283 271 247 230 220 205 193 189 184 175 170 165 168 168 165 168 173 166 168 175 170 173 171 158 139 134 131 105 90 80 72 72 72 72 72 72 72 72 72 72 72 72 72 72 72 72 72 72 72 72 72 72 72 72 72 72 72 72 72 72 74 86 98 103 100 97 72 72 72 72 72 72 72 72 72 78 77 72 75 76 92 106 115 122 140 158
954 993 1032 1069 1105 1146 1187 1228 1270 1300 1331 1286 1241 1202 1163 1158 1155 1169 1184 1219 1255 1239 1223 1199 1176 1146 1124 1093 1054 1052 1049 1054 1061 1065 1070 1067 1065 1066 1068 1071 1074 1087 1102 1116 1130 1145 1158 1169 1200 1218 1238 1257 1278 1302 1328 1358 1409 1447 1525 1590 1660 1716 1782 1841 1817 1845 1777 1772 1727 1717 1717 1717 1717 1717 1717 1717 1717 1717 1717 1717 1717 1717 1742 1756 1834 1888 1890 1843 1789 1732 1678 1622 1576 1552 1515 1507 1463 1425 1372 1365 1322 1305 1263 1240 1235 1223 1222 1198 1167 1127 1102 1075 1072 1063 1035 982 888 837 792 768 730 693 666 652 637 617 603 614 614 634 643 659 681 685 714 741 763 779 848 875 899 932 979 1002 1029 1063 1099 1132 1164 1198 1234 1270 1308 1345 1382 1421 1469 1512 1544 1509 1558 1542 1576 1549 1561 1589 1601 1624 1610 1581 1584 1614 1641 1632 1602 1529 1476 1422 1422 1422 1462 1434 1378 1360 1360 1356 1353 1345 1348 1344 1311 1319 1292 1262 1230 1199 1169 1142 1115 1088 1062 1034 1011 989 962 955 949 937 932 945 958 996 992 1009 1027 1050 1074 1113 1145 1192 1216 1264 1305 1321 1352 1405 1508 1575 1575 1560 1528 1522 1509 1479 1494 1514 1483 1447 1408 1352 1253 1203 1144 1129 1110 1106 1090 1034 961 892 872 823 793 790 818 847 869 842 807 792 745 727 689 656 621 591 560 520 491 457 438 420 403 388 375 358 343 327 319 299 294 286 288 287 273 269 268 264 257 249 239 231 219 209 201 189 175 168 167 156 155 151 163 162 160 157 157 152 143 137 129 131 118 105 97 85 86 72 72 72 72 72 72 72 72 72 72 72 72 72 72 72 72 72 72 72 72 72 72 72 72 73 72 72 72 72 72 72 72 72 72 72 72 72 72 72 72 72 72 72 72 76 94 104 108 104 108 110 112 115 120 143 162 181 193
930 965 1000 1034 1068 1108 1149 1188 1227 1252 1278 1248 1218 1168 1119 1115 1111 1133 1156 1189 1224 1209 1194 1169 1149 1137 1121 1076 1062 1042 1046 1049 1054 1056 1059 1057 1056 1061 1066 1071 1078 1093 1116 1133 1150 1160 1171 1183 1199 1217 1235 1253 1271 1289 1307 1362 1404 1439 1488 1555 1641 1733 1775 1821 1837 1818 1807 1802 1772 1729 1736 1756 1717 1717 1717 1717 1717 1717 1717 1717 1717 1717 1717 1776 1882 1922 1920 1850 1792 1723 1669 1615 1560 1546 1534 1498 1430 1372 1335 1316 1289 1266 1226 1204 1191 1177 1175 1146 1102 1065 1043 1020 993 985 968 914 864 819 782 758 714 688 660 646 617 613 597 604 607 615 621 641 661 674 704 724 767 784 844 881 925 946 974 1002 1024 1053 1086 1118 1149 1181 1213 1249 1288 1327 1365 1414 1452 1476 1483 1490 1501 1508 1545 1570 1608 1554 1570 1563 1584 1599 1637 1615 1623 1614 1570 1520 1473 1434 1451 1435 1430 1445 1448 1446 1408 1378 1377 1352 1346 1344 1350 1340 1313 1313 1285 1262 1229 1194 1157 1127 1096 1065 1034 1007 986 971 955 933 914 910 938 966 977 986 997 1012 1039 1059 1110 1158 1195 1226 1258 1308 1332 1405 1466 1519 1524 1505 1470 1453 1448 1444 1438 1452 1479 1469 1433 1348 1310 1227 1163 1140 1095 1052 1025 997 971 931 885 826 782 772 767 796 807 803 782 751 735 699 660 618 595 551 513 477 460 434 406 393 372 363 347 337 320 304 289 275 277 280 273 260 254 243 236 225 220 211 201 190 179 174 163 156 150 145 147 143 139 140 142 138 136 134 133 124 112 100 101 104 91 82 80 72 72 72 72 72 72 72 72 72 72 72 72 72 72 72 72 72 72 72 72 72 72 72 72 72 72 72 72 73 72 72 72 72 72 72 72 72 72 72 72 72 72 72 80 103 117 120 131 132 137 131 124 128 135 143 164 187 203 209 212
904 935 967 996 1025 1063 1103 1136 1169 1197 1224 1209 1193 1134 1076 1076 1076 1099 1124 1153 1182 1175 1168 1139 1132 1096 1064 1042 1026 1025 1035 1039 1043 1046 1048 1049 1051 1057 1064 1073 1082 1105 1129 1141 1154 1164 1174 1189 1205 1220 1236 1256 1277 1299 1344 1388 1439 1530 1537 1587 1610 1807 1780 1813 1833 1836 1831 1829 1826 1785 1739 1717 1717 1717 1717 1717 1717 1717 1717 1717 1717 1717 1778 1799 1922 2007 1948 1860 1810 1699 1644 1619 1578 1545 1520 1483 1409 1347 1308 1295 1261 1230 1206 1169 1155 1144 1113 1078 1050 1005 981 947 947 923 881 841 828 799 780 746 703 684 650 628 614 606 589 591 593 596 614 632 654 678 695 719 737 771 822 865 905 934 946 983 1011 1041 1072 1102 1131 1161 1192 1227 1265 1303 1341 1397 1412 1418 1423 1431 1446 1467 1496 1523 1522 1511 1514 1553 1585 1601 1596 1591 1578 1561 1540 1511 1481 1470 1479 1462 1433 1442 1470 1487 1462 1400 1368 1355 1352 1361 1397 1431 1372 1346 1332 1323 1298 1266 1229 1175 1130 1094 1064 1035 1007 979 959 948 911 902 910 918 926 928 974 983 1005 1026 1060 1088 1146 1160 1199 1253 1309 1357 1414 1464 1452 1426 1407 1392 1373 1366 1399 1389 1412 1444 1424 1385 1327 1241 1198 1137 1077 1042 994 962 941 913 861 815 763 749 740 750 765 757 749 710 683 660 626 592 545 520 481 452 428 412 390 368 341 329 314 307 295 285 271 258 256 243 241 244 239 210 199 195 184 174 173 169 161 145 134 138 141 143 138 134 131 131 138 119 122 126 114 98 78 74 74 80 72 72 72 72 72 72 72 72 72 72 72 72 72 72 72 72 72 72 72 72 72 72 72 72 72 72 72 72 72 72 72 72 72 72 72 72 72 72 72 72 72 72 72 72 77 98 117 133 147 147 145 150 149 154 148 156 184 203 224 233 241 240 233
882 914 946 969 993 1028 1064 1097 1131 1158 1185 1178 1172 1117 1062 1060 1058 1082 1106 1130 1155 1153 1151 1127 1093 1072 1036 1016 1004 1019 1034 1038 1042 1045 1048 1053 1058 1066 1076 1100 1125 1156 1188 1200 1212 1228 1245 1253 1261 1285 1310 1332 1354 1415 1469 1511 1534 1567 1581 1647 1723 1921 1856 1925 1873 1869 1852 1841 1884 1813 1829 1717 1717 1717 1717 1717 1717 1717 1717 1728 1739 1767 1826 1861 1970 2017 1964 1900 1860 1688 1619 1594 1575 1552 1517 1466 1422 1288 1245 1222 1183 1174 1161 1140 1123 1089 1072 1052 996 944 901 887 851 835 805 781 784 761 744 722 686 668 641 626 604 594 574 572 572 592 606 615 625 652 671 693 734 773 805 845 895 921 945 967 1001 1032 1064 1092 1119 1148 1179 1214 1251 1286 1325 1350 1352 1355 1361 1370 1383 1412 1451 1496 1498 1508 1502 1503 1546 1585 1572 1570 1544 1530 1521 1503 1486 1471 1472 1447 1426 1414 1418 1378 1379 1366 1352 1346 1351 1371 1413 1446 1404 1379 1384 1395 1461 1388 1326 1268 1211 1166 1126 1093 1063 1030 997 969 915 904 889 893 894 912 937 926 959 990 1015 1042 1092 1116 1157 1208 1273 1302 1330 1350 1373 1364 1327 1325 1310 1305 1315 1330 1342 1350 1357 1355 1290 1228 1205 1114 1073 1041 1007 933 895 870 822 788 747 717 707 707 727 706 696 667 651 626 597 552 511 476 455 424 392 375 356 337 318 305 291 287 273 261 242 242 234 222 217 208 197 192 182 172 170 175 160 149 144 134 131 122 116 116 112 110 103 103 102 106 96 84 78 75 74 77 72 72 72 72 72 72 72 72 72 72 72 72 72 72 72 72 72 72 72 72 72 72 72 72 72 72 72 72 72 72 72 72 72 72 72 72 72 72 72 72 72 80 89 83 93 99 112 134 149 168 171 170 175 188 191 193 203 231 236 242 268 282 281 274 265
843 875 907 927 947 977 1008 1044 1081 1107 1133 1135 1137 1092 1048 1039 1030 1046 1062 1081 1100 1101 1103 1081 1060 1043 1027 1003 980 996 1012 1017 1023 1027 1032 1040 1048 1069 1091 1126 1161 1195 1229 1249 1270 1292 1315 1330 1346 1363 1353 1406 1438 1477 1525 1583 1587 1653 1693 1784 1775 1886 1871 1927 1898 1900 1915 1927 1870 1852 1827 1760 1717 1717 1717 1717 1740 1753 1768 1778 1812 1807 1911 1957 1979 1988 1919 1865 1825 1729 1652 1616 1582 1559 1528 1460 1390 1279 1233 1177 1147 1131 1099 1073 1052 1045 1030 1015 963 887 856 822 806 789 731 723 725 718 702 694 684 655 623 605 581 570 565 561 561 575 595 603 618 644 654 702 759 778 805 813 877 914 944 969 985 1014 1045 1073 1101 1130 1159 1190 1221 1249 1278 1290 1294 1291 1300 1308 1337 1373 1412 1473 1473 1513 1527 1560 1516 1533 1555 1575 1548 1524 1514 1494 1481 1458 1428 1410 1399 1383 1365 1338 1331 1333 1322 1324 1338 1364 1407 1436 1432 1422 1413 1417 1433 1444 1402 1346 1293 1239 1185 1136 1090 1054 1022 991 959 933 885 873 854 859 866 891 923 944 969 994 1036 1068 1115 1143 1179 1225 1270 1286 1325 1315 1294 1260 1235 1266 1267 1273 1291 1281 1283 1274 1232 1191 1147 1104 1080 1056 1001 943 892 870 805 761 726 697 674 675 676 664 649 637 613 594 567 527 474 442 420 390 363 353 332 307 285 266 263 251 239 220 218 213 208 213 201 198 195 187 179 164 157 163 161 155 141 128 114 112 110 102 93 87 84 79 75 74 78 79 82 72 72 72 72 72 72 72 72 72 72 72 72 72 72 72 72 72 72 72 72 72 72 72 72 72 72 72 72 72 72 72 72 72 72 72 72 72 72 72 72 72 72 72 80 90 94 95 104 127 145 159 172 181 183 186 199 214 233 241 254 262 273 282 299 315 322 317 302
807 836 866 885 904 928 952 993 1035 1061 1087 1088 1090 1063 1037 1021 1006 1010 1007 1018 1043 1043 1049 1026 1012 996 988 972 945 964 982 992 1003 1012 1021 1033 1044 1076 1108 1147 1187 1223 1259 1283 1309 1330 1352 1388 1425 1433 1481 1517 1509 1591 1636 1695 1661 1761 1813 1852 1892 1953 1948 1943 1954 1964 2007 1989 1998 1946 1924 1852 1765 1772 1769 1767 1772 1802 1825 1826 1889 1964 1947 2001 2012 1995 1967 1896 1847 1795 1712 1649 1628 1592 1548 1482 1354 1264 1217 1152 1115 1091 1054 1016 997 979 972 956 931 880 804 774 760 750 711 667 657 681 681 685 664 628 606 592 567 557 547 544 549 580 585 600 618 649 662 705 749 775 800 810 829 872 929 940 968 997 1025 1053 1082 1107 1133 1158 1183 1198 1204 1224 1233 1225 1231 1275 1321 1341 1387 1447 1483 1499 1527 1504 1529 1500 1537 1548 1549 1541 1528 1522 1462 1404 1389 1374 1383 1337 1342 1348 1314 1295 1287 1282 1303 1327 1387 1472 1506 1488 1427 1418 1452 1499 1469 1434 1395 1338 1273 1203 1132 1087 1055 1024 994 962 930 883 868 843 835 855 885 915 931 963 1006 1030 1085 1114 1139 1168 1231 1266 1272 1263 1240 1210 1184 1185 1209 1210 1207 1196 1174 1158 1132 1107 1081 1053 1031 1005 983 953 886 836 813 781 710 684 658 627 612 597 588 587 568 545 526 485 447 412 390 368 344 313 285 269 257 251 234 224 208 203 193 191 193 187 186 182 187 176 169 153 142 145 150 144 139 126 109 100 95 95 81 73 75 78 77 73 85 72 72 72 72 72 72 72 72 72 72 72 72 72 72 72 72 72 72 72 72 72 72 72 72 72 72 72 72 72 72 72 72 72 72 72 72 72 72 72 72 72 72 72 72 72 92 97 105 118 133 144 158 163 184 201 212 230 240 262 267 276 287 295 302 311 322 319 313 309 307
772 797 823 844 865 886 907 944 982 1006 1030 1036 1043 1021 999 987 975 970 965 956 962 963 962 944 950 937 928 899 912 925 951 965 981 997 1013 1038 1064 1098 1132 1180 1227 1265 1303 1322 1342 1362 1383 1435 1487 1535 1572 1611 1628 1685 1752 1797 1798 1848 1858 1914 1934 1959 1993 1954 1978 1985 2023 2028 2078 2039 1958 1933 1864 1848 1845 1818 1799 1799 1871 1902 1928 2046 2048 2084 2099 2069 2003 1938 1851 1832 1748 1717 1699 1595 1484 1387 1298 1228 1200 1159 1085 1053 1005 988 959 937 932 918 883 798 738 717 713 690 657 640 642 643 647 649 644 621 613 600 566 548 533 538 548 561 573 588 611 641 624 697 733 744 773 791 833 871 892 920 948 976 1003 1030 1058 1081 1103 1120 1134 1142 1147 1154 1164 1176 1209 1257 1319 1361 1392 1440 1478 1488 1491 1491 1491 1518 1536 1531 1538 1530 1531 1544 1433 1380 1344 1328 1372 1347 1331 1323 1268 1247 1232 1219 1247 1262 1322 1502 1525 1494 1398 1394 1403 1456 1467 1464 1455 1414 1357 1294 1228 1164 1101 1057 1021 984 947 895 869 844 823 829 837 868 898 929 971 984 1032 1070 1111 1146 1189 1218 1212 1199 1179 1169 1132 1123 1145 1137 1147 1105 1089 1077 1063 1047 1020 998 979 961 942 908 859 829 790 749 690 657 623 602 572 557 552 541 524 511 485 451 404 379 365 337 314 289 267 250 237 227 210 204 195 187 183 184 181 178 176 176 159 153 146 132 124 121 114 118 120 119 99 84 79 77 78 72 72 72 72 72 72 72 72 72 72 72 72 72 72 72 72 72 72 72 72 72 72 72 72 72 72 72 72 72 72 72 72 72 72 72 72 72 72 72 72 72 72 72 72 72 72 72 72 73 82 94 101 115 121 131 144 167 178 192 202 235 242 243 268 287 300 311 310 311 307 303 304 312 330 332 326
740 761 783 802 822 843 864 895 927 951 975 980 986 966 946 939 933 923 915 905 892 886 880 871 836 837 832 846 861 894 927 947 968 997 1026 1059 1093 1125 1156 1214 1272 1311 1350 1374 1397 1419 1441 1485 1529 1566 1603 1678 1755 1817 1852 1909 1886 1974 1968 1984 2001 2029 2067 2017 2039 2020 2058 2064 2083 2067 2051 2029 1979 1948 1925 1891 1848 1850 1916 1973 2013 2074 2191 2212 2169 2107 2062 1991 1927 1876 1842 1777 1679 1523 1370 1291 1203 1204 1191 1144 1055 1028 989 943 924 897 870 857 806 727 688 676 627 621 610 602 600 592 590 596 603 607 607 597 575 542 533 548 553 554 567 584 602 616 651 688 713 724 747 767 816 843 870 898 926 952 978 1004 1030 1051 1069 1077 1079 1087 1098 1116 1138 1171 1210 1248 1310 1352 1397 1434 1465 1488 1500 1491 1506 1504 1507 1520 1548 1508 1489 1461 1406 1352 1279 1286 1286 1292 1305 1256 1207 1214 1194 1206 1202 1221 1265 1392 1350 1319 1315 1350 1292 1309 1304 1321 1341 1331 1330 1310 1280 1220 1146 1099 1041 996 956 919 864 849 807 796 799 825 843 882 930 956 993 1041 1075 1114 1137 1127 1126 1093 1082 1082 1096 1075 1064 1070 1058 1050 996 1016 993 954 947 934 911 883 881 828 789 762 717 672 644 620 594 564 546 526 494 492 474 456 431 394 371 346 325 300 283 268 255 235 224 211 192 182 181 180 174 176 174 168 166 159 154 142 142 133 108 101 100 95 98 99 88 73 74 73 87 72 72 72 72 72 72 72 72 72 72 72 72 72 72 72 72 72 72 72 72 72 72 72 72 72 72 72 72 72 72 72 72 72 72 72 72 72 72 72 72 72 72 72 72 72 73 72 76 82 93 105 113 123 132 143 166 186 205 223 239 248 255 274 290 300 304 306 304 299 299 304 311 325 326 320 305
709 730 751 765 780 802 825 849 874 895 917 917 918 906 895 887 880 868 853 846 822 811 806 799 797 795 794 818 843 881 921 949 978 1014 1050 1083 1117 1152 1186 1245 1305 1351 1398 1427 1459 1486 1481 1515 1551 1603 1660 1722 1800 1854 1877 1904 1994 2078 2081 2116 2062 2077 2070 2179 2098 2141 2109 2120 2162 2111 2107 2102 2077 2043 2015 1986 1935 1938 2017 2056 2061 2095 2176 2217 2243 2173 2101 2033 1941 1880 1814 1753 1614 1402 1280 1205 1133 1112 1120 1101 1042 1013 963 897 866 832 802 780 714 645 608 594 581 574 581 570 554 544 543 559 571 572 561 566 566 537 525 537 544 553 563 580 597 611 641 658 692 702 716 745 791 819 847 874 902 927 953 977 1000 1015 1026 1034 1040 1062 1092 1124 1158 1191 1224 1258 1292 1332 1371 1415 1448 1469 1527 1519 1504 1521 1520 1575 1536 1469 1467 1418 1385 1326 1253 1256 1198 1234 1236 1216 1195 1195 1193 1172 1168 1186 1221 1267 1262 1230 1238 1225 1201 1195 1147 1168 1183 1220 1260 1276 1280 1247 1196 1140 1058 999 951 887 851 823 788 771 761 788 828 843 888 934 958 992 1036 1062 1042 1052 1040 1034 1031 1017 1002 973 968 982 982 960 953 946 935 910 887 860 863 834 790 753 730 675 639 622 594 575 546 527 508 479 447 433 426 404 386 358 338 320 297 273 264 249 223 206 199 193 178 168 165 158 156 159 164 160 152 140 141 127 108 111 99 90 81 84 83 79 77 74 72 72 72 72 72 72 72 72 72 72 72 72 72 72 72 72 72 72 72 72 72 72 72 72 72 72 72 72 72 72 72 72 72 72 72 72 72 72 72 72 72 72 72 72 73 73 73 74 78 77 87 104 103 109 120 135 148 169 195 217 235 245 251 256 272 275 289 300 301 295 286 285 288 300 313 312 305 291 278
676 699 723 734 747 768 789 808 828 844 861 856 853 848 844 831 820 809 798 789 766 759 752 754 756 769 783 816 850 892 934 971 1007 1040 1074 1116 1159 1187 1215 1265 1315 1373 1431 1473 1527 1554 1590 1590 1628 1657 1714 1777 1821 1874 1944 2022 2067 2095 2125 2131 2117 2160 2200 2161 2162 2182 2195 2189 2192 2189 2209 2179 2148 2112 2101 2118 2134 2150 2171 2192 2099 2071 2106 2129 2155 2153 2020 1954 1871 1808 1715 1633 1475 1356 1245 1145 1086 1062 1038 1029 1012 983 920 841 805 773 739 709 648 604 573 551 534 513 528 547 536 524 518 520 533 545 537 539 540 523 516 523 531 547 560 575 593 605 634 645 671 672 695 725 756 790 818 845 872 898 924 944 961 973 982 1006 1037 1066 1095 1126 1158 1189 1219 1249 1279 1319 1360 1408 1458 1496 1517 1461 1499 1524 1509 1510 1492 1474 1419 1389 1350 1272 1195 1180 1177 1176 1139 1145 1199 1185 1141 1112 1124 1132 1145 1198 1226 1210 1193 1122 1081 1069 1078 1077 1081 1170 1162 1197 1230 1229 1212 1164 1077 1005 959 905 829 799 780 773 759 767 798 833 860 892 936 950 984 996 987 979 984 973 962 952 938 915 912 924 937 910 892 884 877 847 832 807 800 788 741 707 624 620 598 571 551 519 485 473 454 442 410 391 372 358 335 321 319 313 304 272 242 223 204 191 180 164 161 156 151 149 140 141 138 135 137 137 127 111 99 99 98 89 84 77 74 80 72 72 72 72 72 72 72 72 72 72 72 72 72 72 72 72 72 72 72 72 72 72 72 72 72 72 72 72 72 72 72 72 72 72 72 72 72 72 72 72 72 72 72 85 75 79 78 81 89 92 101 128 133 140 149 147 153 158 174 191 209 231 241 247 254 265 279 280 290 294 286 277 282 285 296 305 301 298 292 269 269
641 661 681 701 722 737 753 768 784 795 808 803 799 792 785 770 756 754 752 746 740 738 736 746 758 785 813 845 877 919 962 1001 1042 1083 1125 1165 1205 1233 1263 1296 1330 1388 1448 1491 1544 1584 1617 1661 1700 1729 1763 1829 1890 1930 2008 2084 2117 2185 2195 2152 2209 2187 2170 2164 2177 2183 2183 2185 2188 2195 2214 2214 2176 2144 2175 2246 2222 2226 2160 2065 2052 2021 2027 2028 1991 1960 1865 1814 1729 1660 1557 1442 1379 1331 1247 1154 1089 1034 1016 1000 938 887 867 791 760 727 650 624 607 576 536 514 503 486 490 489 519 512 503 494 487 501 511 510 505 503 504 513 526 538 555 565 575 589 604 624 644 649 669 683 725 762 788 816 842 865 887 905 920 942 968 996 1027 1058 1089 1120 1151 1181 1211 1241 1261 1300 1345 1389 1415 1465 1460 1442 1460 1498 1495 1465 1441 1387 1399 1334 1273 1234 1174 1093 1092 1099 1098 1077 1126 1155 1070 1069 1094 1096 1098 1166 1219 1203 1155 1114 1077 1059 1067 1061 1049 1055 1079 1112 1150 1161 1160 1115 1055 1017 989 920 836 798 771 750 734 746 763 789 813 854 887 912 935 936 932 938 927 904 899 894 893 882 870 869 854 842 841 828 813 796 773 753 732 698 664 613 586 568 539 513 498 469 441 420 416 399 383 379 363 354 338 314 298 284 280 259 230 203 188 174 160 147 154 145 140 133 131 130 120 116 112 113 103 94 87 81 78 78 78 85 72 72 72 72 72 72 72 72 72 72 72 72 72 72 72 72 72 72 72 72 72 72 72 72 72 72 72 72 72 72 72 72 72 72 72 72 72 72 72 72 72 72 72 72 72 84 95 100 107 115 128 145 152 158 170 182 188 193 200 205 209 221 235 240 244 250 262 269 269 273 274 272 267 274 282 287 297 295 281 270 269 273 282
598 613 628 660 691 704 717 729 742 749 757 753 749 736 724 716 708 713 718 715 723 735 744 769 794 829 864 893 923 960 998 1043 1088 1133 1178 1218 1258 1291 1324 1351 1379 1424 1469 1497 1515 1575 1642 1688 1749 1791 1854 1897 1938 2009 2085 2133 2166 2223 2273 2267 2259 2242 2240 2234 2238 2241 2224 2223 2214 2221 2224 2214 2193 2162 2242 2219 2168 2132 2089 2048 1992 1928 1921 1906 1824 1766 1692 1627 1539 1483 1431 1398 1352 1281 1244 1174 1092 1044 1008 952 862 816 800 770 726 634 613 590 559 544 520 502 479 465 440 438 441 465 486 491 480 475 471 471 479 485 491 499 508 524 541 552 562 574 586 602 618 627 643 658 690 735 755 785 806 825 842 865 890 919 950 981 1013 1046 1079 1110 1141 1167 1192 1215 1240 1280 1307 1341 1370 1414 1441 1441 1477 1478 1465 1432 1373 1341 1304 1244 1193 1077 1077 1085 1090 1085 1055 1018 1036 1030 1017 999 1036 1052 1074 1135 1222 1232 1187 1136 1081 1052 1045 1029 1017 1033 1043 1069 1098 1106 1104 1081 1024 991 953 910 855 801 765 733 717 725 733 760 787 826 847 864 869 873 861 865 858 856 848 841 845 830 793 785 786 792 789 780 760 739 722 704 668 624 580 554 530 502 483 459 438 417 391 385 376 361 347 351 349 339 320 297 273 260 245 226 208 199 176 157 150 145 139 141 141 123 123 119 113 100 94 86 83 81 76 77 76 75 85 72 72 72 72 72 72 72 72 72 72 72 72 72 72 72 72 72 72 72 72 72 72 72 72 72 72 72 72 72 72 72 72 72 72 72 72 72 72 72 72 72 72 72 72 72 72 96 122 133 141 142 147 166 177 186 201 210 206 206 215 229 236 242 248 253 260 263 266 264 263 263 263 263 263 263 265 272 279 273 271 283 295 303 307
556 568 581 612 643 663 683 690 698 704 711 705 699 687 675 676 677 690 700 722 736 758 782 810 839 873 907 936 966 1019 1073 1123 1174 1197 1220 1272 1325 1359 1393 1417 1441 1476 1513 1520 1533 1596 1658 1724 1774 1814 1889 1950 1991 2052 2105 2165 2225 2274 2273 2259 2260 2270 2258 2260 2258 2267 2256 2239 2232 2236 2230 2221 2203 2210 2250 2222 2165 2115 2078 2027 1992 1945 1902 1818 1759 1694 1613 1510 1468 1419 1377 1366 1336 1257 1232 1175 1084 1019 973 932 826 761 740 710 639 605 570 553 534 517 500 480 469 460 431 418 412 396 415 431 470 480 471 475 465 470 480 484 489 505 522 535 549 557 564 580 598 610 621 628 647 681 707 731 766 786 808 835 863 894 926 960 995 1028 1060 1087 1112 1131 1148 1174 1204 1237 1284 1323 1356 1390 1430 1453 1442 1442 1432 1411 1400 1339 1244 1201 1125 1084 1068 1078 1051 995 996 968 973 971 966 959 988 1022 1043 1136 1216 1211 1176 1126 1067 1038 1018 971 966 997 1010 1034 1057 1060 1058 1044 1001 965 945 912 863 805 754 736 708 700 712 735 761 811 828 834 831 826 826 828 816 812 807 808 796 771 747 738 738 728 724 729 717 702 686 645 608 549 522 502 476 450 434 415 401 374 361 348 339 339 343 339 335 324 296 279 266 247 227 207 196 190 163 145 133 131 131 138 125 117 104 104 104 96 77 77 77 77 80 86 84 72 72 72 72 72 72 72 72 72 72 72 72 72 72 72 72 72 72 72 72 72 72 72 72 72 72 72 72 72 72 72 72 72 72 72 72 72 72 72 72 72 72 72 72 72 72 84 93 127 145 162 166 177 185 192 204 214 217 215 213 217 227 246 251 261 261 259 262 271 263 263 263 264 268 263 263 266 266 265 265 277 293 303 314 323 323
514 527 542 568 596 621 646 650 654 660 667 656 654 653 653 678 676 699 743 758 774 798 821 849 878 910 943 982 1021 1083 1146 1191 1236 1270 1305 1341 1377 1418 1458 1486 1513 1561 1610 1600 1574 1655 1715 1773 1824 1866 1913 1991 2033 2086 2144 2195 2256 2292 2258 2283 2276 2271 2268 2275 2257 2240 2233 2239 2222 2226 2246 2229 2237 2209 2182 2168 2162 2136 2061 2048 1997 1961 1923 1853 1733 1645 1558 1478 1452 1402 1349 1326 1299 1236 1198 1154 1057 1005 939 909 841 764 685 653 621 589 559 527 508 488 472 460 450 447 438 424 408 393 393 392 400 419 429 461 455 452 460 464 468 485 503 517 532 538 544 559 576 586 583 608 625 661 676 695 734 758 782 809 837 870 905 937 967 997 1026 1049 1068 1088 1109 1139 1175 1213 1258 1294 1329 1364 1387 1461 1423 1417 1419 1397 1365 1313 1272 1202 1128 1078 1059 1060 1058 1000 976 962 941 937 915 916 950 982 1046 1101 1151 1160 1149 1106 1048 1040 992 957 938 955 965 981 1024 1028 1014 992 967 938 894 883 843 812 750 727 705 667 668 701 726 772 799 805 797 789 786 783 774 763 757 756 747 717 701 688 687 683 687 699 673 650 637 601 544 495 471 452 436 419 401 381 366 360 346 339 340 339 340 338 326 322 295 266 241 222 211 190 169 159 155 141 124 116 110 113 104 89 83 78 79 79 77 85 72 72 72 72 72 72 72 72 72 72 72 72 72 72 72 72 72 72 72 72 72 72 72 72 72 72 72 72 72 72 72 72 72 72 72 72 72 72 72 72 72 72 72 72 72 72 72 72 72 105 111 103 105 120 151 162 173 187 198 209 214 218 219 221 232 226 241 249 256 263 264 265 263 266 264 269 269 273 265 268 272 274 271 277 289 303 310 317 325 329 329
476 492 508 531 554 578 602 609 616 623 630 613 612 636 671 686 728 757 776 804 806 826 846 879 913 950 988 1029 1070 1121 1174 1220 1267 1316 1366 1399 1433 1478 1523 1552 1581 1631 1683 1692 1703 1746 1789 1821 1903 1943 1982 2044 2078 2140 2163 2228 2239 2277 2225 2262 2253 2253 2242 2245 2234 2236 2250 2239 2189 2198 2229 2217 2209 2216 2206 2168 2122 2124 2081 2043 1914 1928 1880 1786 1688 1603 1520 1466 1417 1345 1302 1246 1230 1212 1165 1125 1063 993 922 881 821 749 663 635 612 575 556 532 518 492 471 462 451 448 436 417 420 414 396 396 382 382 393 410 427 440 442 442 446 466 485 494 504 514 525 540 556 566 570 585 603 615 629 648 691 731 757 785 813 845 878 906 932 956 980 1002 1024 1053 1086 1120 1155 1188 1221 1256 1299 1323 1344 1369 1397 1403 1433 1399 1363 1284 1270 1215 1145 1099 1070 1059 1039 1001 974 957 918 883 876 882 872 925 963 1026 1060 1089 1098 1079 1029 989 942 910 902 901 908 935 973 954 940 931 915 889 870 839 805 784 732 697 680 656 652 671 702 741 766 757 752 736 725 724 719 707 705 705 691 674 651 649 650 650 642 643 635 627 602 520 487 452 437 410 398 381 366 351 350 347 338 339 336 342 350 349 335 305 276 254 230 209 186 173 159 153 144 134 113 108 95 90 82 76 79 78 87 72 72 72 72 72 72 72 72 72 72 72 72 72 72 72 72 72 72 72 72 72 72 72 72 72 72 72 72 72 72 72 72 72 72 72 72 72 72 72 72 72 72 72 72 72 72 72 72 72 72 72 97 114 126 127 131 139 151 165 177 195 202 214 218 222 219 219 219 237 250 253 255 255 255 265 266 269 269 275 272 272 284 285 273 271 273 290 314 319 313 313 321 317 311
440 457 474 495 516 539 563 574 587 595 604 618 632 658 687 715 736 761 787 808 829 854 879 913 948 983 1019 1062 1106 1147 1189 1241 1293 1344 1396 1442 1489 1534 1579 1606 1634 1681 1728 1760 1793 1828 1863 1924 1975 2027 2104 2096 2041 1972 2088 2154 2149 2140 2139 2180 2238 2239 2243 2233 2212 2243 2251 2250 2190 2180 2182 2201 2193 2174 2160 2125 2111 2091 2066 2034 1864 1835 1775 1677 1622 1550 1507 1454 1365 1299 1237 1224 1208 1191 1141 1076 1024 975 885 836 779 717 682 653 620 588 562 540 521 497 480 466 462 450 433 428 431 412 410 398 394 388 380 384 395 410 426 425 424 443 462 468 475 490 505 520 536 546 576 568 561 589 605 636 658 704 731 758 786 815 846 870 890 912 935 964 996 1030 1064 1095 1124 1153 1182 1212 1244 1277 1302 1319 1348 1392 1441 1438 1381 1293 1251 1208 1156 1114 1081 1054 1022 990 963 930 920 886 864 868 884 893 914 969 1017 1039 1047 1027 986 952 913 885 884 878 874 876 888 888 885 881 866 854 831 808 773 741 712 679 662 641 631 653 687 713 730 721 716 704 694 690 685 678 680 660 645 641 626 617 602 599 588 596 588 561 523 508 455 424 404 395 374 362 350 350 348 337 337 335 339 342 346 338 317 280 243 231 203 182 163 156 139 133 118 108 99 96 81 76 76 76 72 72 72 72 72 72 72 72 72 72 72 72 72 72 72 72 72 72 72 72 72 72 72 72 72 72 72 72 72 72 72 72 72 72 72 72 72 72 72 72 72 72 72 72 72 72 72 72 72 72 72 72 72 87 123 142 144 146 151 164 166 174 181 187 204 213 214 220 225 221 224 244 246 250 248 256 266 265 276 282 289 286 282 275 273 275 281 286 304 316 322 317 311 311 311 312 314
413 425 437 452 468 495 522 538 554 574 594 618 642 670 699 725 753 775 798 827 856 881 906 937 968 1002 1037 1085 1134 1172 1210 1256 1302 1351 1401 1456 1512 1567 1622 1652 1681 1731 1782 1823 1863 1902 1956 2019 2070 2106 2120 2060 2005 1957 2012 2073 2089 2104 2138 2139 2207 2198 2221 2225 2214 2212 2221 2181 2150 2155 2156 2167 2123 2124 2132 2129 2112 2079 2038 1962 1847 1790 1683 1587 1519 1500 1426 1360 1325 1288 1211 1173 1162 1159 1117 1075 1032 952 874 829 779 732 695 651 629 597 569 540 522 498 484 476 461 454 454 428 415 405 398 386 380 379 370 366 363 382 401 399 396 413 430 439 449 462 467 494 516 521 539 535 539 557 583 616 643 674 700 725 750 777 805 828 848 874 904 938 972 1004 1033 1060 1087 1109 1130 1158 1189 1225 1264 1299 1336 1340 1398 1427 1408 1327 1255 1200 1156 1121 1087 1047 1003 964 934 904 886 871 845 830 837 844 856 892 923 937 938 937 919 901 899 881 871 855 840 836 831 829 845 831 821 809 795 777 751 714 679 648 625 605 600 627 673 687 699 685 674 674 671 668 658 642 628 628 609 597 568 542 535 538 525 517 505 497 505 487 435 403 369 364 361 358 349 341 340 334 339 334 326 327 321 307 289 255 235 197 170 158 144 125 117 95 80 82 80 76 79 76 76 88 72 72 72 72 72 72 72 72 72 72 72 72 72 72 72 72 72 72 72 72 72 72 72 72 72 72 72 72 72 72 72 72 72 72 72 72 72 72 72 72 72 72 72 72 72 72 72 72 72 72 72 72 79 102 132 151 163 164 169 179 179 189 198 204 213 221 229 227 222 225 237 252 254 249 249 258 269 276 286 293 281 280 282 276 284 297 301 299 304 304 309 308 300 301 302 314 329
382 394 406 418 430 455 481 503 526 560 593 623 653 681 710 734 758 782 806 838 872 893 914 941 967 1005 1043 1090 1138 1177 1215 1254 1294 1342 1391 1452 1512 1572 1633 1691 1749 1792 1835 1870 1905 1948 2002 2055 2123 2063 2051 2021 1983 1957 1978 2015 2040 2067 2099 2134 2166 2139 2200 2201 2194 2180 2161 2138 2111 2082 2113 2132 2127 2120 2110 2101 2095 2071 2025 1985 1847 1735 1619 1572 1495 1437 1370 1318 1276 1253 1211 1185 1172 1142 1108 1085 1034 915 881 838 794 754 715 675 648 612 585 559 529 519 484 475 463 454 434 430 420 401 394 391 376 370 373 352 342 351 361 364 367 383 398 411 425 442 460 472 481 498 521 535 547 563 581 600 612 643 667 691 714 738 763 791 819 847 876 903 929 959 991 1020 1048 1064 1090 1119 1153 1189 1228 1266 1302 1323 1377 1390 1396 1307 1240 1194 1150 1121 1093 1052 996 940 901 872 852 814 792 788 784 785 816 817 844 864 876 876 866 852 851 864 847 817 801 792 784 791 791 796 776 762 748 732 713 687 641 623 602 590 587 604 636 655 658 651 642 621 619 618 606 583 562 569 561 552 531 506 495 481 474 467 457 451 439 417 375 364 361 355 356 350 338 339 328 330 326 329 331 321 303 280 257 232 196 182 147 133 120 95 80 80 84 78 77 72 72 72 72 72 72 72 72 72 72 72 72 72 72 72 72 72 72 72 72 72 72 72 72 72 72 72 72 72 72 72 72 72 72 72 72 72 72 72 72 72 72 72 72 72 72 72 72 72 72 72 72 72 72 73 73 73 97 120 139 159 166 162 166 178 187 208 229 234 234 232 233 234 233 238 245 266 259 253 252 268 277 290 293 288 289 280 285 292 299 311 316 305 291 293 297 300 301 299 300 310 330
351 364 368 392 407 433 460 491 523 557 593 623 654 679 705 729 753 780 807 842 877 895 914 939 965 1001 1038 1078 1119 1158 1199 1237 1276 1326 1376 1438 1501 1569 1637 1698 1758 1804 1850 1888 1926 1970 2012 2043 2030 1998 1983 1962 1945 1936 1947 1969 1994 2023 2059 2094 2123 2137 2170 2211 2198 2180 2144 2082 2005 2026 2031 2038 2122 2114 2103 2076 2061 2040 2011 1931 1804 1686 1654 1591 1486 1422 1352 1309 1267 1245 1197 1159 1133 1114 1105 1085 1043 1007 925 885 831 790 751 709 686 642 624 588 558 537 511 471 454 444 442 424 417 400 397 405 390 386 378 352 327 329 331 337 343 356 370 385 401 417 435 450 466 479 498 515 529 544 559 576 594 614 634 655 676 701 728 756 785 812 839 862 885 912 942 973 1004 1032 1061 1094 1130 1163 1196 1233 1271 1299 1342 1368 1307 1263 1219 1180 1139 1115 1100 1059 995 923 892 865 833 784 763 723 703 722 741 757 780 803 823 817 821 809 809 805 811 787 753 731 732 738 735 726 725 695 695 683 666 642 615 597 579 552 547 572 598 605 607 598 589 592 591 585 562 532 518 518 516 498 482 457 454 446 423 422 407 401 391 377 373 365 364 364 351 342 326 318 316 309 316 320 323 305 277 242 209 195 170 139 126 103 78 78 78 78 72 72 72 72 72 72 72 72 72 72 72 72 72 72 72 72 72 72 72 72 72 72 72 72 72 72 72 72 72 72 72 72 72 72 72 72 72 72 72 72 72 72 72 72 72 72 72 72 72 72 72 72 72 72 72 72 75 83 86 95 112 128 140 154 156 166 177 183 205 221 242 253 254 249 247 240 237 242 257 263 261 252 253 267 277 286 281 279 289 303 315 322 323 315 304 294 291 291 293 292 287 289 294 317 345
325 332 349 373 398 431 455 484 514 544 575 607 640 665 691 718 747 774 802 835 869 887 906 936 965 998 1031 1066 1100 1136 1173 1213 1254 1303 1352 1417 1482 1548 1615 1664 1713 1769 1826 1866 1902 1939 1970 1970 1950 1929 1909 1898 1884 1878 1895 1916 1943 1965 1999 2042 2098 2127 2155 2140 2129 2101 2085 2027 1974 1983 2038 2109 2125 2125 2101 2078 2044 2030 1986 1895 1717 1669 1627 1547 1490 1403 1334 1279 1248 1210 1154 1118 1099 1096 1083 1057 1043 1019 996 965 882 832 832 782 710 676 656 631 600 600 529 502 483 443 436 422 431 409 396 402 408 392 358 340 314 310 307 314 321 330 340 354 369 387 405 421 437 448 464 483 503 520 538 555 572 588 604 622 642 668 698 722 744 770 799 823 845 870 896 926 958 995 1034 1069 1103 1137 1177 1208 1232 1253 1258 1271 1273 1245 1197 1161 1126 1104 1111 1074 1009 941 899 871 831 782 731 695 674 670 683 697 728 753 770 778 774 769 769 769 775 770 733 695 692 690 691 677 666 640 620 622 622 609 591 568 558 533 510 512 563 568 563 569 581 574 567 552 531 500 478 467 456 439 431 416 432 426 411 404 397 395 398 399 397 377 359 357 349 336 325 315 304 305 305 303 285 257 228 194 174 154 139 112 96 81 78 90 85 72 72 72 72 72 72 72 72 72 72 72 72 72 72 72 72 72 72 72 72 72 72 72 72 72 72 72 72 72 72 72 72 72 72 72 72 72 72 72 72 72 72 72 72 72 72 72 72 72 72 72 72 94 96 94 87 83 89 91 96 104 124 133 143 154 161 171 179 201 218 235 245 247 247 241 242 242 235 236 247 253 254 252 254 266 271 276 276 295 309 319 319 323 317 304 284 284 290 288 284 288 295 310 324 333 353
300 319 337 363 390 424 449 470 491 516 543 582 622 649 677 704 731 767 802 824 847 870 892 923 955 984 1014 1045 1076 1110 1146 1188 1229 1277 1324 1391 1458 1523 1588 1633 1692 1754 1794 1808 1858 1862 1877 1880 1870 1855 1840 1828 1813 1807 1833 1845 1883 1911 1948 2001 2070 2108 2136 2151 2111 2082 2069 1987 1962 1971 2004 2128 2121 2112 2099 2070 2036 1980 1914 1790 1706 1626 1562 1489 1435 1362 1302 1250 1213 1168 1112 1090 1077 1075 1065 1043 1026 1017 1004 987 960 916 899 845 770 742 726 732 710 691 621 598 545 516 496 432 422 405 398 380 376 386 373 345 311 297 284 291 298 304 310 321 333 352 372 384 396 411 432 454 475 494 513 530 546 560 573 591 612 637 664 685 703 726 751 773 795 822 852 879 904 942 997 1033 1062 1072 1118 1139 1192 1179 1187 1223 1267 1237 1198 1132 1091 1055 1070 1039 985 939 908 861 819 772 715 666 635 623 608 650 688 697 710 706 708 717 719 723 723 709 691 669 628 616 618 592 583 586 571 558 564 562 558 563 552 508 482 495 513 546 547 541 548 555 537 514 484 465 438 411 398 397 393 389 392 399 397 399 409 421 426 406 367 345 340 333 326 308 297 301 296 288 279 264 241 212 191 173 156 137 112 80 77 80 72 72 72 72 72 72 72 72 72 72 72 72 72 72 72 72 72 72 72 72 72 72 72 72 72 72 72 72 72 72 72 72 72 72 72 72 72 72 72 72 72 72 72 72 82 73 73 73 72 72 72 72 72 107 119 129 133 125 128 119 114 113 116 131 136 144 153 154 159 179 181 205 218 231 240 255 252 240 235 226 218 223 240 245 246 253 260 266 269 289 299 308 322 325 326 324 317 300 284 284 284 284 288 301 316 323 321 323 330
300 311 326 347 369 394 428 447 466 491 518 562 606 635 664 685 706 748 790 806 823 846 868 902 936 961 986 1017 1047 1083 1120 1163 1206 1251 1296 1356 1416 1475 1534 1585 1628 1672 1701 1726 1765 1784 1793 1802 1807 1796 1774 1762 1737 1735 1757 1792 1829 1881 1925 1978 2038 2106 2120 2124 2093 2039 1983 1941 1936 1935 1949 2060 2108 2090 2059 2021 1949 1895 1847 1736 1629 1565 1497 1446 1382 1344 1289 1223 1189 1154 1108 1085 1071 1072 1054 1062 1034 1033 1025 1011 979 963 932 911 889 856 828 834 811 784 739 697 629 561 535 503 445 399 392 375 353 360 358 314 298 279 261 268 275 278 281 290 300 316 333 347 362 377 378 411 442 463 482 498 512 528 544 562 580 602 625 644 661 679 698 716 735 766 803 821 832 884 927 947 984 989 1011 1039 1070 1079 1110 1165 1218 1200 1130 1092 1039 1002 966 969 962 921 880 829 806 781 695 631 597 580 537 586 618 642 655 664 677 688 693 680 677 591 590 580 558 516 524 523 520 501 516 517 528 538 552 539 516 486 471 482 488 505 519 525 526 515 495 470 453 441 418 393 385 372 367 366 374 382 384 399 407 404 393 370 343 326 312 313 300 291 285 274 265 260 248 242 232 210 192 164 137 108 81 80 92 72 72 72 72 72 72 72 72 72 72 72 72 72 72 72 72 72 72 72 72 72 72 72 72 72 72 72 72 72 72 72 72 72 72 72 72 72 72 72 72 72 72 85 115 122 114 99 87 78 73 104 118 122 133 143 152 165 173 171 158 145 131 131 128 138 148 156 158 159 168 176 191 214 224 228 227 238 237 231 208 208 208 208 222 230 242 258 269 278 277 289 303 313 318 325 328 321 310 296 284 284 284 288 299 313 324 323 322 320 315
301 311 317 332 348 370 401 420 440 467 494 539 584 618 653 667 683 720 757 776 794 816 838 871 905 931 958 989 1021 1059 1097 1139 1181 1229 1278 1326 1374 1427 1481 1521 1561 1591 1614 1657 1689 1711 1724 1738 1751 1748 1717 1696 1675 1682 1692 1739 1818 1855 1918 1928 2005 2080 2098 2098 2059 1993 1953 1931 1922 1912 1921 1973 2009 2035 1954 1898 1857 1829 1765 1712 1601 1559 1489 1406 1355 1303 1235 1199 1179 1135 1108 1092 1077 1075 1078 1070 1052 1045 1026 1015 1002 981 964 948 942 922 924 913 888 864 818 750 670 638 604 567 509 449 425 391 372 333 311 292 272 258 244 247 250 251 252 260 269 282 296 328 362 357 351 362 404 426 447 463 477 495 515 533 549 564 579 596 614 630 646 662 678 700 722 741 757 793 828 851 878 893 912 936 958 976 1011 1058 1090 1062 1015 978 962 945 906 892 863 816 804 786 737 695 642 582 554 544 536 545 563 585 608 622 632 620 604 551 528 507 483 477 451 466 454 451 465 463 460 477 486 503 504 496 481 444 425 421 445 459 491 497 478 473 458 434 415 402 379 367 368 357 360 358 363 365 373 389 394 391 349 332 309 303 290 287 275 266 255 246 241 226 226 228 211 187 158 126 103 83 96 72 72 72 72 72 72 72 72 72 72 72 72 72 72 72 72 72 72 72 72 72 72 72 72 72 72 72 72 72 72 72 72 72 72 72 72 72 72 72 72 73 73 81 110 127 138 142 133 115 103 118 129 141 153 162 178 191 210 211 200 183 167 156 155 158 154 155 155 155 157 166 175 180 203 222 222 222 216 209 208 208 223 216 213 208 208 227 250 267 275 282 282 287 298 310 312 310 303 303 302 289 289 282 284 298 305 312 310 307 306 302 303
287 298 310 315 330 358 379 398 419 441 468 510 548 589 630 643 657 684 711 732 754 781 809 842 876 907 939 968 997 1032 1068 1112 1157 1207 1257 1303 1350 1390 1430 1461 1493 1527 1567 1607 1642 1653 1662 1672 1690 1686 1672 1650 1643 1646 1663 1686 1750 1811 1898 1963 2031 2036 2145 2075 2061 2012 1950 1926 1902 1885 1870 1881 1917 1922 1906 1864 1779 1726 1684 1600 1552 1508 1426 1369 1304 1260 1239 1206 1172 1146 1125 1097 1081 1075 1079 1070 1067 1054 1021 1014 999 984 971 964 972 986 971 947 921 900 887 842 737 676 646 612 579 542 507 464 424 358 323 298 273 255 237 237 237 235 235 241 248 258 273 300 309 315 314 333 364 387 409 427 444 463 485 502 518 527 533 547 564 579 594 608 622 634 644 667 679 698 725 750 771 787 804 826 847 867 895 928 940 921 889 861 842 819 803 816 842 827 753 712 652 604 560 523 503 496 497 510 540 561 563 522 524 514 495 473 416 420 406 382 379 370 400 411 389 397 402 420 439 454 459 468 426 396 385 389 409 450 471 470 458 434 421 399 378 375 368 356 353 343 333 337 345 350 361 375 385 368 329 311 294 276 263 269 266 248 226 212 214 211 197 187 161 130 110 82 73 72 72 72 72 72 72 72 72 72 72 72 72 72 72 72 72 72 72 72 72 72 72 72 72 72 72 72 72 72 72 72 72 72 72 72 72 72 72 73 72 72 73 92 116 134 144 148 148 130 126 144 158 168 186 185 184 192 193 208 210 210 204 197 179 176 174 178 183 179 173 173 184 187 187 186 191 196 203 206 209 208 208 216 219 212 213 220 216 235 259 275 285 279 278 277 281 290 291 293 288 281 270 269 271 269 284 292 299 304 297 292 286 282 293
257 276 294 305 317 335 353 373 394 416 435 468 497 541 586 605 625 644 665 689 714 747 781 815 850 887 924 946 969 999 1030 1079 1129 1181 1234 1274 1315 1345 1376 1405 1435 1470 1482 1541 1574 1594 1603 1618 1616 1622 1616 1618 1620 1631 1650 1767 1784 1860 1910 1968 2023 2076 2119 2062 2071 2022 1937 1923 1880 1856 1833 1839 1845 1841 1893 1829 1761 1655 1604 1563 1475 1423 1375 1345 1288 1249 1222 1198 1175 1149 1127 1097 1092 1073 1078 1072 1058 1038 1024 1017 996 989 981 977 995 1011 993 973 948 928 914 876 826 771 706 668 637 585 535 494 475 411 373 336 300 276 253 242 232 232 232 232 235 246 268 300 288 275 284 298 323 344 367 388 409 429 449 465 479 487 491 501 513 525 538 551 563 574 583 590 599 617 639 662 674 682 697 721 740 755 775 792 798 787 768 747 729 711 702 707 713 705 667 618 561 516 480 455 441 432 429 438 423 433 422 407 375 374 378 374 361 358 338 337 331 301 314 329 343 340 328 363 380 396 394 379 359 349 359 393 426 426 422 432 418 398 389 380 381 382 367 349 328 327 318 329 336 337 341 364 372 356 340 320 281 260 250 244 225 206 199 194 200 194 176 141 102 80 75 83 72 72 72 72 72 72 72 72 72 72 72 72 72 72 72 72 72 72 72 72 72 72 72 72 72 72 72 72 72 72 72 72 72 72 72 73 76 87 91 95 102 112 129 145 161 170 158 145 144 147 161 181 189 196 200 203 198 200 203 214 225 222 206 196 186 185 182 186 193 193 182 179 189 194 186 186 189 206 209 211 207 218 220 217 210 206 206 206 211 234 248 266 270 272 270 264 266 262 266 271 278 272 269 272 265 269 273 277 277 275 269 265 266 270 281
240 253 271 281 292 309 327 347 368 384 401 425 450 492 534 558 582 605 629 655 681 717 754 790 826 862 898 918 939 961 983 1042 1102 1144 1187 1228 1269 1299 1330 1360 1390 1411 1441 1481 1504 1536 1534 1544 1558 1563 1574 1585 1595 1630 1685 1735 1787 1841 1909 1972 2009 2101 2091 2052 2039 2015 1964 1908 1862 1831 1781 1755 1797 1812 1938 1858 1768 1699 1620 1548 1473 1397 1369 1326 1293 1251 1225 1212 1181 1171 1177 1157 1088 1076 1070 1059 1039 1036 1020 1002 998 997 1012 1030 1010 994 976 941 943 931 921 921 902 886 809 754 682 641 566 535 508 488 421 385 349 321 294 271 249 238 232 240 235 234 249 251 251 254 259 270 282 303 325 347 370 390 409 424 438 444 447 454 465 478 493 502 508 518 530 534 537 543 558 585 577 584 603 626 637 648 665 680 678 669 657 642 625 611 600 594 588 571 543 501 460 428 399 374 360 350 339 335 331 328 327 320 322 316 318 318 306 294 300 281 281 267 274 295 285 275 319 333 324 346 349 347 310 313 324 379 387 377 385 379 378 374 367 383 394 382 359 339 316 305 315 316 317 320 331 332 327 329 312 292 290 264 237 221 205 193 178 175 172 152 103 84 82 94 88 72 72 72 72 72 72 72 72 72 72 72 72 72 72 72 72 72 72 72 72 72 72 72 72 72 72 72 72 72 72 72 72 72 72 72 80 99 109 114 116 119 132 141 154 168 166 147 147 152 158 171 200 214 221 215 211 204 200 203 221 229 237 220 216 218 210 206 206 204 209 206 207 198 190 192 187 186 188 195 205 206 201 208 213 206 206 206 206 219 220 230 240 248 257 257 247 246 246 246 250 263 270 266 259 256 257 256 259 258 251 245 245 247 252 259 268
238 248 241 251 262 281 301 324 347 360 374 395 416 456 496 521 547 573 599 625 651 686 722 757 792 831 870 889 910 931 954 1011 1068 1099 1130 1172 1214 1250 1287 1316 1345 1364 1384 1415 1440 1465 1485 1503 1522 1536 1551 1569 1587 1640 1693 1744 1795 1848 1921 1987 2057 2092 2092 2066 2070 2006 1920 1888 1829 1788 1744 1744 1782 1729 1938 1862 1777 1736 1652 1576 1493 1428 1354 1313 1284 1265 1253 1221 1204 1190 1189 1169 1117 1101 1078 1074 1070 1065 1071 1044 1028 1037 1058 1030 997 975 953 930 922 922 927 937 947 937 889 826 760 708 644 577 539 510 463 430 397 370 343 322 297 275 281 258 236 227 235 225 232 235 240 245 246 265 285 308 332 352 368 381 392 398 402 409 418 430 445 452 456 464 473 475 474 482 495 483 496 512 532 529 535 548 568 582 577 568 556 543 528 514 501 486 466 441 412 382 359 339 314 292 280 273 264 258 259 261 262 265 285 277 271 261 262 240 227 213 222 229 232 230 232 232 232 245 276 295 293 292 273 271 292 327 343 337 341 342 350 349 344 356 362 357 345 324 312 297 288 289 304 301 303 304 308 307 288 285 255 226 214 207 183 156 144 132 113 111 83 83 87 84 72 72 72 72 72 72 72 72 72 72 72 72 72 72 72 72 72 72 72 72 72 72 72 72 72 72 72 72 72 72 72 72 72 76 75 81 85 105 120 131 144 149 152 158 164 153 155 156 166 165 172 196 200 198 195 198 199 202 216 225 233 241 244 246 245 227 224 225 222 229 232 235 216 203 191 188 186 186 186 191 196 199 200 194 198 202 207 216 221 221 223 226 237 240 248 243 241 257 254 252 249 249 252 262 267 268 260 258 259 256 251 244 242 246 245 245 251
215 206 215 223 232 256 280 303 326 342 359 375 392 427 462 491 520 546 572 597 622 656 689 726 763 802 842 866 891 911 932 981 1031 1056 1081 1121 1161 1200 1239 1268 1297 1321 1345 1372 1399 1431 1462 1488 1513 1532 1550 1599 1648 1701 1755 1799 1843 1877 1932 1988 2050 2094 2075 2086 2075 2017 1903 1860 1804 1768 1732 1730 1708 1708 1804 1766 1780 1728 1612 1544 1508 1442 1389 1334 1317 1289 1264 1227 1215 1217 1208 1178 1162 1146 1136 1156 1164 1146 1142 1126 1105 1116 1088 1045 994 958 943 929 923 925 930 941 945 948 939 893 845 793 740 661 608 556 506 473 440 408 378 347 324 315 312 298 272 243 234 221 211 213 221 225 227 238 253 273 295 313 329 341 350 354 356 362 372 382 391 399 405 409 411 412 414 418 424 430 432 444 453 455 456 468 489 491 479 476 466 449 430 416 403 385 363 334 307 279 262 252 226 212 202 193 195 201 208 207 203 208 228 230 230 227 221 201 186 181 173 184 202 188 193 184 179 190 204 237 254 247 235 246 282 301 307 306 316 321 314 312 320 327 332 330 321 311 295 270 277 276 287 280 280 276 286 279 263 237 229 233 229 182 144 118 112 88 86 92 89 86 72 72 72 72 72 72 72 72 72 72 72 72 72 72 72 72 72 72 72 72 72 72 72 72 72 72 72 72 72 72 72 72 72 92 103 88 91 89 102 115 131 138 139 146 149 145 152 163 174 181 182 183 190 202 206 198 192 192 192 198 207 226 247 260 279 290 283 251 241 231 222 219 223 221 215 205 188 186 186 186 186 186 187 188 186 195 197 212 223 229 222 222 226 225 231 236 240 244 254 251 250 250 253 252 270 280 286 286 279 271 270 261 249 240 236 238 237 244 242
177 174 189 198 196 233 258 279 302 326 351 363 376 405 434 467 501 524 549 576 604 635 667 701 736 774 813 842 870 888 907 949 991 1017 1043 1076 1108 1147 1187 1215 1244 1276 1308 1349 1390 1428 1467 1504 1542 1576 1610 1659 1708 1750 1792 1839 1887 1914 1963 2011 2059 2076 2122 2075 2038 1981 1894 1834 1776 1734 1737 1714 1708 1708 1716 1742 1761 1677 1587 1559 1520 1457 1399 1356 1343 1323 1297 1284 1259 1245 1244 1227 1219 1237 1258 1204 1204 1200 1218 1207 1189 1162 1126 1065 1010 975 954 937 941 934 940 940 949 943 941 946 900 849 789 747 653 598 566 510 476 441 408 372 337 314 280 278 270 251 229 223 211 207 202 214 210 220 232 245 259 274 290 301 311 313 312 317 324 332 339 346 352 354 354 358 363 368 372 376 380 385 388 382 395 404 419 410 378 387 376 355 331 315 299 284 268 240 214 180 163 168 140 128 123 123 89 144 148 149 149 154 167 182 193 198 200 172 155 161 151 157 151 156 138 147 148 157 182 208 225 210 223 243 260 276 282 285 291 297 290 278 277 282 286 293 288 281 269 250 249 250 267 271 260 257 262 244 233 246 250 230 170 128 117 110 72 72 72 72 72 72 72 72 72 72 72 72 72 72 72 72 72 72 72 72 72 72 72 72 72 72 72 72 72 72 72 72 72 72 72 72 73 94 107 107 111 93 99 107 111 121 138 146 140 130 130 142 158 178 176 182 183 187 202 212 214 192 192 192 204 209 216 235 255 278 272 275 268 252 237 224 220 207 207 211 212 203 197 186 186 186 186 186 186 186 191 207 218 227 227 230 226 227 231 231 230 230 238 245 244 248 250 251 266 273 285 297 284 280 274 271 266 257 245 233 231 232 230 234 232
135 146 155 158 160 186 224 247 270 301 332 347 363 386 408 444 481 508 535 559 584 612 641 678 715 749 784 814 844 863 884 915 948 975 1003 1034 1065 1101 1138 1181 1225 1258 1292 1343 1394 1438 1482 1520 1559 1602 1646 1690 1738 1785 1834 1876 1925 1972 2022 2052 2092 2113 2058 2014 1990 1983 1885 1793 1750 1739 1711 1781 1717 1708 1743 1768 1662 1653 1603 1557 1527 1469 1443 1394 1373 1338 1315 1302 1276 1267 1261 1265 1293 1322 1350 1351 1349 1356 1303 1244 1223 1189 1137 1073 1034 1000 978 960 945 938 948 944 963 951 950 957 932 905 849 769 737 643 617 562 516 477 439 402 366 332 299 275 265 242 224 214 207 200 197 203 199 200 211 221 230 243 258 269 277 280 280 283 288 293 298 302 304 309 315 317 319 321 325 327 329 327 325 320 336 338 344 333 324 311 296 267 241 228 218 194 182 163 136 89 89 89 89 89 89 89 89 104 109 109 112 113 101 95 104 142 155 140 142 140 135 117 107 111 105 117 132 138 150 169 179 187 223 242 253 258 253 247 245 254 256 244 246 245 255 257 262 264 255 238 233 234 231 242 245 235 243 256 273 266 221 159 104 94 94 88 72 72 72 72 72 72 72 72 72 72 72 72 72 72 72 72 72 72 72 72 72 72 72 72 72 72 72 72 72 72 72 72 72 72 73 80 93 98 110 116 118 118 109 114 119 120 122 114 114 123 140 163 180 184 182 192 194 206 217 201 192 192 196 204 213 219 225 250 263 276 273 267 266 247 231 227 219 205 200 206 203 201 194 188 186 186 186 186 186 186 197 208 216 220 224 228 225 229 235 235 232 232 236 241 242 245 250 264 270 267 275 271 269 262 256 249 249 246 237 237 235 232 231 223 223
101 133 166 158 184 184 183 204 236 267 298 321 345 364 382 421 459 494 530 547 564 587 611 651 692 727 763 789 817 838 859 885 911 942 974 1003 1032 1070 1108 1164 1219 1259 1300 1349 1399 1443 1487 1535 1591 1642 1661 1714 1755 1800 1839 1881 1928 1962 2023 2028 2027 2025 2020 1967 1938 1944 1853 1769 1730 1721 1685 1715 1720 1685 1673 1711 1718 1658 1627 1597 1536 1492 1453 1424 1400 1386 1345 1311 1289 1303 1306 1323 1366 1383 1409 1444 1430 1414 1360 1286 1249 1192 1161 1093 1063 1029 993 977 957 943 956 951 958 956 952 952 949 904 843 807 777 717 645 606 569 524 478 437 398 359 321 309 291 239 241 225 204 205 195 194 190 189 196 205 213 236 276 242 250 256 259 260 261 262 264 265 266 272 282 284 282 283 284 285 287 284 279 274 270 279 274 264 257 248 234 215 193 179 169 156 141 127 102 92 96 88 98 91 101 94 88 90 94 102 105 95 93 89 80 80 86 86 105 111 113 104 99 84 88 101 105 121 134 153 181 189 195 210 215 242 216 203 196 206 209 205 206 207 214 243 244 240 235 226 217 223 220 226 231 242 259 278 278 261 181 123 111 98 85 72 72 72 72 72 72 72 72 72 72 72 72 72 72 72 72 72 72 72 72 72 72 72 72 72 72 72 72 72 72 72 72 76 76 93 100 101 102 121 117 126 133 131 129 127 113 111 117 122 123 138 165 189 191 188 185 189 189 183 181 181 185 194 204 209 210 214 236 259 276 279 267 263 249 236 221 214 207 195 195 199 192 186 186 186 186 186 186 186 186 188 195 208 218 222 226 225 224 229 231 233 238 244 243 244 243 243 248 260 266 260 251 248 248 248 243 241 241 242 235 226 223 223 223 223 223
72 106 140 152 165 163 158 162 187 234 266 292 319 339 360 394 429 479 530 540 551 574 596 629 663 699 736 765 794 817 840 866 891 924 958 987 1015 1051 1088 1145 1203 1245 1287 1340 1394 1441 1489 1536 1590 1646 1692 1721 1739 1786 1834 1865 1900 1936 1963 1953 1943 1937 1928 1898 1872 1856 1800 1744 1716 1705 1671 1671 1691 1684 1678 1680 1697 1708 1652 1621 1555 1514 1461 1441 1410 1389 1364 1351 1354 1336 1335 1349 1379 1430 1449 1448 1448 1391 1360 1324 1263 1223 1181 1144 1084 1058 1029 1003 982 970 961 960 965 945 928 926 922 900 871 824 811 773 719 652 613 584 544 507 457 406 375 323 272 239 236 226 215 213 213 197 194 189 189 193 200 228 237 283 232 237 241 242 241 240 237 236 235 239 245 247 248 247 245 247 251 251 251 239 222 214 212 207 206 180 166 155 142 135 131 122 97 80 83 78 75 88 85 75 73 76 74 76 89 80 93 83 76 74 74 74 73 73 73 77 77 79 74 74 74 79 100 119 151 159 153 154 163 178 173 191 184 172 173 172 181 170 169 180 183 212 227 223 227 210 196 198 209 220 227 224 240 184 171 148 72 72 72 72 72 72 72 72 72 72 72 72 72 72 72 72 72 72 72 72 72 72 72 72 72 72 72 72 72 72 72 72 72 72 72 72 72 77 105 114 114 111 114 109 111 120 127 125 122 108 114 135 136 144 143 161 177 187 192 191 185 181 181 181 181 181 184 198 200 205 218 218 214 215 223 234 250 252 251 239 227 212 201 195 196 199 191 186 186 186 186 186 186 186 186 186 197 210 212 215 217 218 222 224 228 233 233 242 247 245 248 249 255 258 258 251 241 246 248 243 238 238 233 229 224 223 223 223 227 233 235
67 84 107 128 142 143 153 155 161 212 247 273 299 321 343 370 398 456 516 527 539 564 589 610 631 664 699 736 774 806 837 858 880 911 943 970 998 1033 1069 1121 1173 1212 1252 1310 1369 1433 1489 1536 1573 1608 1666 1691 1709 1746 1780 1809 1843 1872 1904 1889 1867 1853 1840 1820 1798 1778 1743 1707 1684 1659 1634 1618 1654 1688 1705 1658 1696 1665 1648 1613 1577 1506 1469 1451 1419 1406 1393 1375 1377 1370 1368 1387 1418 1441 1442 1396 1349 1293 1286 1294 1264 1253 1231 1194 1118 1087 1067 1056 1025 1000 987 975 956 931 905 869 864 858 843 808 780 724 711 656 611 589 563 528 478 431 390 327 284 251 229 211 207 196 190 167 160 183 212 189 199 206 212 234 214 221 227 230 232 226 215 210 208 209 212 212 211 211 212 212 212 216 222 207 181 169 165 149 129 116 108 96 89 81 86 75 76 73 73 72 72 72 72 72 72 72 72 73 73 73 73 73 73 73 72 72 72 72 72 72 72 72 73 79 74 86 103 115 128 129 121 121 133 152 160 161 165 146 126 125 138 141 143 149 149 161 163 166 166 173 183 186 188 192 181 168 157 128 130 72 72 72 72 72 72 72 72 72 72 72 72 72 72 72 72 72 72 72 72 72 72 72 72 72 72 72 72 72 72 72 72 72 72 72 73 74 75 95 111 116 116 107 102 102 103 113 111 103 107 122 138 159 157 157 167 171 181 186 188 181 181 181 181 181 187 188 189 190 187 194 195 193 200 197 210 223 243 262 265 251 227 203 201 199 195 188 186 186 186 186 186 186 186 186 186 186 203 212 212 210 219 220 217 218 218 221 226 235 242 244 242 239 240 238 236 238 237 241 238 232 221 214 219 218 214 218 226 233 237 242 244
66 71 83 107 125 135 139 157 170 196 229 257 286 308 331 354 377 430 484 503 523 547 571 585 599 637 675 713 751 788 825 842 859 890 922 952 983 1014 1046 1087 1128 1169 1210 1265 1331 1396 1459 1499 1530 1546 1580 1611 1646 1676 1692 1727 1766 1795 1812 1807 1793 1775 1758 1738 1719 1704 1686 1666 1651 1635 1615 1610 1631 1665 1670 1626 1657 1642 1630 1566 1544 1510 1496 1472 1452 1439 1418 1398 1398 1411 1408 1419 1424 1425 1390 1317 1260 1231 1184 1190 1146 1161 1187 1178 1159 1134 1093 1074 1049 996 973 957 914 876 831 793 786 772 765 738 690 673 613 573 566 535 509 473 451 409 368 322 265 220 227 209 197 181 173 160 160 163 212 225 250 194 189 189 196 201 206 210 213 206 194 188 184 181 180 178 176 178 182 166 162 141 115 103 108 94 99 86 88 78 73 73 72 72 72 72 72 72 72 72 72 72 72 72 72 72 72 72 72 72 72 72 72 72 72 72 72 72 72 72 72 72 72 72 72 81 94 82 82 82 84 91 106 113 138 129 131 117 107 100 117 117 119 121 132 137 134 152 159 157 152 152 161 161 152 135 129 112 107 72 72 72 72 72 72 72 72 72 72 72 72 72 72 72 72 72 72 72 72 72 72 72 72 72 72 72 72 72 72 72 72 72 72 73 73 74 79 88 95 107 112 108 98 88 89 94 100 104 116 125 125 139 149 156 171 184 187 194 193 185 181 181 186 185 185 186 179 179 187 197 196 190 185 188 202 223 253 274 268 255 237 209 202 197 187 186 186 186 186 186 186 186 186 186 193 196 205 202 201 201 201 201 203 206 212 216 222 227 224 219 222 227 229 233 228 222 226 230 229 223 214 215 217 223 227 227 235 235 235 232 234
66 66 67 89 112 127 158 155 158 171 210 245 281 301 322 344 367 408 450 483 516 529 544 558 573 612 652 685 718 755 793 813 834 863 893 927 962 990 1019 1055 1091 1128 1166 1218 1272 1332 1386 1437 1454 1480 1512 1551 1585 1600 1622 1669 1700 1730 1748 1735 1720 1699 1678 1658 1647 1640 1630 1623 1620 1606 1596 1596 1606 1614 1600 1586 1575 1616 1582 1532 1549 1538 1513 1495 1471 1458 1432 1416 1414 1413 1419 1432 1435 1396 1367 1289 1214 1181 1140 1101 1074 1083 1076 1070 1079 1059 1037 1009 989 958 934 886 862 824 773 737 727 711 711 675 641 602 575 526 496 479 442 411 384 347 311 275 239 205 203 210 205 199 173 166 158 159 198 191 183 196 173 178 182 184 187 186 184 179 173 168 164 159 152 141 140 142 141 103 97 90 80 77 73 73 72 72 72 72 72 72 72 72 72 72 72 72 72 72 72 72 72 72 72 72 72 72 72 72 72 72 72 72 72 72 72 72 72 72 72 72 72 72 72 72 72 72 72 72 72 72 89 84 101 101 106 93 78 75 73 78 80 91 100 119 131 139 137 133 126 123 121 110 104 100 98 88 72 72 72 72 72 72 72 72 72 72 72 72 72 72 72 72 72 72 72 72 72 72 72 72 72 72 72 72 72 72 72 72 72 72 72 73 84 86 83 81 85 86 89 82 73 78 98 114 119 115 131 124 131 140 151 159 163 174 178 182 176 172 174 183 194 181 180 180 185 179 178 178 178 179 185 195 209 243 263 278 276 261 245 228 209 193 186 186 186 186 186 186 186 186 186 190 192 212 217 214 206 201 201 201 201 201 205 205 210 215 217 218 220 220 214 209 204 206 206 208 208 207 214 223 228 237 250 253 238 237 237 238 235
66 66 66 75 90 111 132 158 158 158 193 230 268 290 313 334 355 385 415 455 495 507 520 536 552 586 620 649 678 714 751 780 809 835 861 896 931 955 980 1019 1058 1093 1128 1168 1206 1256 1293 1340 1390 1407 1429 1471 1512 1538 1559 1615 1643 1676 1683 1663 1646 1629 1604 1587 1579 1576 1573 1578 1585 1583 1575 1575 1577 1579 1580 1562 1584 1569 1581 1544 1565 1590 1533 1515 1492 1456 1424 1391 1366 1362 1368 1409 1440 1405 1360 1261 1216 1179 1136 1106 1051 1028 1011 1003 1028 1007 973 953 925 890 866 846 797 762 725 707 692 705 636 602 581 548 507 496 458 434 393 365 319 292 259 233 205 179 137 176 162 181 155 148 147 154 163 150 152 156 161 166 184 177 167 160 148 152 141 143 139 113 129 94 102 99 91 73 73 72 72 72 72 72 72 72 72 72 72 72 72 72 72 72 72 72 72 72 72 72 72 72 72 72 72 72 72 72 72 72 72 72 72 72 72 72 72 72 72 72 72 72 72 72 72 72 72 72 72 72 72 72 72 72 72 72 72 73 75 73 73 75 99 113 121 121 129 125 103 91 72 75 75 72 77 77 72 72 72 72 72 72 72 72 72 72 72 72 72 72 72 72 72 72 72 72 72 72 72 72 72 72 72 72 72 72 72 72 72 72 73 77 86 85 76 76 76 73 73 73 88 107 119 121 125 119 120 119 119 123 141 151 155 165 163 163 165 172 177 188 189 184 181 180 185 179 178 178 185 192 195 203 208 237 249 258 265 259 248 224 189 186 186 186 186 186 186 186 186 214 199 195 201 217 221 218 214 209 201 201 201 201 201 202 215 216 220 217 214 211 200 191 191 192 197 200 207 213 222 237 247 253 256 256 251 254 247 237 225
66 66 66 66 71 91 112 125 152 158 164 207 244 273 302 325 348 375 402 437 472 486 500 517 535 564 593 619 647 683 719 756 794 815 838 866 894 921 949 985 1021 1057 1093 1130 1169 1206 1246 1282 1305 1341 1365 1399 1434 1481 1545 1585 1622 1631 1618 1596 1577 1564 1542 1517 1514 1509 1519 1536 1553 1556 1551 1551 1554 1557 1561 1562 1572 1582 1597 1554 1539 1508 1536 1512 1486 1440 1404 1375 1339 1317 1299 1323 1350 1342 1317 1261 1206 1156 1134 1107 1040 985 955 935 916 913 907 869 857 844 816 772 732 713 698 655 625 607 587 535 509 482 473 438 384 367 351 319 279 266 233 202 182 175 137 138 137 144 158 155 145 148 141 145 146 148 150 142 161 162 156 152 146 145 141 121 104 97 87 78 77 80 78 72 72 72 72 72 72 72 72 72 72 72 72 72 72 72 72 72 72 72 72 72 72 72 72 72 72 72 72 72 72 72 72 72 72 72 72 72 72 72 72 72 72 72 72 72 72 72 72 72 72 72 72 72 72 72 72 72 72 72 72 72 72 73 74 77 78 90 98 111 117 101 78 72 72 72 72 72 79 80 73 72 72 72 72 72 72 72 72 72 72 72 72 72 72 72 72 72 72 72 72 72 72 72 72 72 72 72 72 72 72 72 72 73 82 84 73 74 76 73 73 73 73 81 106 115 123 120 120 122 126 128 128 138 151 158 163 159 160 168 172 174 184 194 192 194 179 177 177 177 180 185 189 197 199 208 204 207 211 216 215 210 202 193 186 186 186 190 191 190 190 186 186 186 189 194 208 211 221 222 215 204 201 201 201 201 201 217 213 206 199 200 201 203 198 191 191 193 197 204 216 222 227 245 250 248 248 251 259 257 254 250 232
66 66 66 66 69 79 93 113 134 158 158 194 231 264 297 316 335 364 393 420 447 464 482 498 515 544 574 601 629 661 694 732 770 794 818 843 867 893 919 955 992 1028 1064 1100 1137 1170 1204 1232 1262 1291 1321 1364 1408 1454 1511 1567 1600 1577 1550 1523 1507 1501 1491 1479 1463 1446 1467 1496 1523 1519 1511 1517 1529 1540 1554 1568 1570 1560 1572 1543 1517 1509 1490 1496 1469 1428 1404 1367 1322 1281 1255 1258 1261 1274 1278 1220 1149 1108 1096 1074 1038 980 905 859 837 825 834 813 777 759 754 761 670 635 613 593 573 553 520 471 450 423 421 361 337 342 303 286 264 224 182 172 148 154 137 137 137 140 152 159 151 143 143 142 139 139 138 141 147 138 139 113 101 103 95 89 74 76 76 73 72 72 72 72 72 72 72 72 72 72 72 72 72 72 72 72 72 72 72 72 72 72 72 72 72 72 72 72 72 72 72 72 72 72 72 72 72 72 72 72 72 72 72 72 72 72 72 72 72 72 72 72 72 72 72 72 72 72 72 72 72 72 72 72 72 72 72 85 76 76 75 74 72 72 72 72 72 72 72 82 105 103 84 74 72 72 72 72 72 72 72 72 72 72 72 72 72 72 72 72 72 72 72 72 72 72 72 72 72 72 72 72 72 72 72 81 84 78 74 73 73 73 77 73 84 96 109 120 123 121 125 129 132 134 139 156 170 175 166 155 159 178 189 193 196 197 195 188 183 177 178 185 187 191 193 196 192 188 181 182 182 186 182 182 190 192 186 186 186 186 193 192 186 186 186 189 197 195 199 204 201 202 204 205 201 201 201 201 206 213 207 201 198 198 198 198 196 191 187 189 196 208 214 225 239 244 245 251 253 260 264 260 247 230 218
66 66 66 66 67 71 81 103 126 158 158 192 232 261 291 310 328 355 382 401 420 441 462 478 495 525 556 585 615 636 658 692 725 761 796 822 848 869 891 928 966 1003 1040 1072 1104 1136 1170 1196 1222 1252 1283 1326 1370 1414 1469 1516 1555 1514 1477 1449 1430 1429 1429 1417 1412 1398 1409 1439 1479 1463 1465 1475 1491 1512 1540 1568 1571 1547 1557 1484 1466 1553 1442 1436 1412 1389 1401 1368 1328 1265 1237 1223 1206 1231 1228 1199 1125 1075 1033 1016 991 957 870 821 800 761 758 764 754 696 675 655 612 590 576 539 511 487 457 428 412 391 361 322 299 280 260 248 226 201 175 150 145 135 133 148 139 136 126 137 153 158 161 154 145 139 141 132 118 107 107 108 106 94 88 74 74 73 72 72 72 72 72 72 72 72 72 72 72 72 72 72 72 72 72 72 72 72 72 72 72 72 72 72 72 72 72 72 72 72 72 72 72 72 72 72 72 72 72 72 72 72 72 72 72 72 72 72 72 72 72 72 72 72 72 72 72 72 72 72 72 72 72 72 72 72 72 72 72 73 74 73 72 72 72 77 72 72 72 97 110 94 73 79 72 72 72 72 72 72 72 72 72 72 72 72 72 72 72 72 72 72 72 72 72 72 72 72 72 72 72 72 72 72 72 72 72 84 78 72 72 74 77 92 98 114 116 105 112 118 127 139 130 132 138 152 158 153 146 153 155 171 181 180 180 180 181 179 177 176 176 179 193 197 193 183 181 181 185 182 182 182 182 187 199 203 203 190 186 186 187 186 186 186 186 191 190 190 193 195 193 195 202 202 201 201 201 201 204 210 212 211 210 212 206 198 194 192 183 182 193 201 212 231 238 238 239 242 242 240 240 234 214 203 200
66 66 66 66 66 67 69 95 120 150 158 188 225 255 286 307 328 352 375 390 406 425 445 462 481 511 542 568 595 604 615 644 673 725 776 800 823 842 861 899 937 976 1015 1045 1075 1106 1137 1156 1176 1206 1236 1272 1308 1351 1398 1434 1479 1446 1413 1376 1331 1356 1368 1367 1361 1363 1375 1388 1388 1406 1418 1432 1451 1469 1509 1527 1553 1520 1510 1452 1403 1454 1339 1315 1298 1325 1284 1289 1255 1207 1176 1187 1177 1154 1165 1165 1106 1053 1013 969 930 885 871 833 786 728 691 654 648 622 601 593 570 551 520 486 480 455 421 393 363 342 310 281 260 245 235 229 192 177 156 160 167 147 124 124 124 124 124 124 146 165 179 176 157 158 151 137 128 110 104 95 100 84 75 74 72 72 72 72 72 72 72 72 72 72 72 72 72 72 72 72 72 72 72 72 72 72 72 72 72 72 72 72 72 72 72 72 72 72 72 72 72 72 72 72 72 72 72 72 72 72 72 72 72 72 72 72 72 72 72 72 72 72 72 72 72 72 72 72 72 72 72 72 72 72 72 72 72 72 72 72 72 72 73 73 73 72 74 77 83 77 75 72 72 72 72 72 72 72 72 72 72 72 72 72 72 72 72 72 72 72 72 72 72 72 72 72 72 72 72 72 72 72 72 72 72 72 72 72 72 72 72 73 87 95 106 109 114 108 109 112 112 127 128 130 129 133 137 148 157 162 167 176 180 176 176 176 176 176 176 178 179 176 180 189 186 187 188 182 182 185 201 207 205 210 213 206 200 186 191 193 191 186 186 195 198 202 202 199 194 200 208 206 201 201 201 201 201 208 213 213 211 207 202 199 191 182 169 175 178 186 199 225 239 239 231 224 214 209 206 202 197 201 214
66 66 66 66 66 66 70 86 108 138 158 183 216 245 276 307 338 356 375 389 403 419 435 454 473 500 527 551 576 581 587 611 636 688 739 766 793 815 839 875 912 945 979 1013 1048 1073 1099 1113 1128 1154 1181 1213 1244 1286 1328 1381 1415 1404 1399 1354 1309 1311 1314 1321 1315 1324 1336 1335 1339 1339 1357 1387 1409 1427 1464 1497 1539 1560 1498 1426 1397 1351 1273 1256 1232 1217 1206 1185 1165 1147 1122 1126 1116 1106 1100 1114 1085 1027 1001 955 875 839 812 795 753 696 658 613 589 566 548 534 505 476 448 439 396 365 340 330 337 309 276 257 241 215 201 186 175 158 155 155 148 133 128 130 127 124 124 125 142 145 162 164 152 137 124 119 114 106 106 97 88 75 75 73 72 72 72 72 72 72 72 72 72 72 72 72 72 72 72 72 72 72 72 72 72 72 72 72 72 72 72 72 72 72 72 72 72 72 72 72 72 72 72 72 72 72 72 72 72 72 72 72 72 72 72 72 72 72 72 72 72 72 72 72 72 72 72 72 72 72 72 72 72 72 72 72 72 72 72 72 72 72 72 72 72 72 72 72 72 72 72 72 72 72 72 72 72 72 72 72 72 72 72 72 72 72 72 72 72 72 72 72 72 72 72 72 72 72 72 72 72 72 72 72 72 72 72 76 72 72 72 72 72 95 102 97 95 97 99 101 105 113 119 123 135 149 158 157 152 159 171 177 177 176 180 185 182 185 177 176 176 183 190 185 180 181 184 185 201 217 213 206 205 210 217 214 211 205 203 201 208 207 211 217 213 210 211 212 203 206 204 201 201 201 201 210 220 234 229 221 216 213 206 193 183 172 165 167 169 168 177 193 208 213 205 201 198 195 198 193 197 205 211
66 66 66 66 66 66 66 79 98 134 158 168 210 235 261 302 342 358 374 393 412 421 431 448 465 488 512 538 564 568 572 589 607 652 698 726 755 787 820 849 879 908 938 976 1014 1034 1055 1070 1086 1110 1135 1164 1194 1230 1266 1303 1340 1358 1377 1329 1281 1275 1269 1267 1266 1284 1303 1310 1317 1316 1315 1335 1365 1391 1442 1519 1545 1544 1492 1435 1346 1291 1234 1211 1182 1170 1158 1126 1099 1087 1089 1094 1081 1057 1056 1051 1042 1001 959 893 840 819 777 715 672 653 609 579 557 533 505 476 453 436 402 377 349 324 310 294 274 256 237 225 216 190 177 174 166 155 155 157 135 108 121 134 144 130 124 124 124 134 157 165 164 132 114 103 89 90 86 77 75 73 72 72 72 72 72 72 72 72 72 72 72 72 72 72 72 72 72 72 72 72 72 72 72 72 72 72 72 72 72 72 72 72 72 72 72 72 72 72 72 72 72 72 72 72 72 72 72 72 72 72 72 72 72 72 72 72 72 72 72 72 72 72 72 72 72 72 72 72 72 72 72 72 72 72 72 72 72 72 72 72 72 72 72 72 72 72 72 72 72 72 72 72 72 72 72 72 72 72 72 72 72 72 72 72 72 72 72 72 72 72 72 72 72 72 72 72 72 72 72 72 72 72 72 72 72 73 72 72 72 72 72 72 79 86 90 93 101 102 103 111 117 127 144 156 161 158 160 161 165 172 176 182 182 188 194 187 183 181 180 182 180 180 183 186 186 195 201 207 206 208 215 227 235 223 218 214 202 197 201 199 196 196 199 197 195 196 195 198 202 201 204 204 206 218 223 219 212 209 209 209 199 202 204 180 165 165 165 165 167 162 162 164 170 172 171 176 200 209 204 200 192
66 66 66 66 66 66 66 78 98 132 158 172 216 235 255 292 330 350 370 396 422 428 433 445 457 475 494 525 556 559 562 570 579 612 644 682 720 751 782 812 843 874 904 936 968 992 1017 1033 1050 1072 1095 1122 1149 1180 1212 1247 1282 1303 1324 1286 1248 1243 1238 1233 1229 1249 1270 1291 1314 1318 1323 1340 1357 1400 1444 1487 1502 1502 1486 1386 1334 1268 1221 1188 1150 1117 1101 1073 1048 1034 1026 1015 995 1002 993 998 983 953 902 869 812 736 665 630 606 585 558 525 499 480 468 441 417 394 367 349 323 292 260 245 229 215 192 183 170 172 167 157 146 143 135 127 133 107 111 108 134 132 127 124 128 141 160 163 143 111 86 90 81 72 72 72 72 79 72 72 72 72 72 72 72 72 72 72 72 72 72 72 72 72 72 72 72 72 72 72 72 72 72 72 72 72 72 72 72 72 72 72 72 72 72 72 72 72 72 72 72 72 72 72 72 72 72 72 72 72 72 72 72 72 72 72 72 72 72 72 72 72 72 72 72 72 72 72 72 72 72 72 72 72 72 72 72 72 72 72 72 72 72 72 72 72 72 72 72 72 72 72 72 72 72 72 72 72 72 72 72 72 72 72 72 72 72 72 72 72 72 72 72 72 72 72 72 72 72 72 72 72 72 74 72 72 72 72 72 79 90 91 90 91 90 99 98 106 121 120 129 133 131 131 139 149 161 167 169 169 169 172 175 177 177 181 185 180 183 192 200 205 206 211 216 223 220 221 224 231 234 231 216 205 197 181 187 192 196 201 198 199 195 197 202 204 207 209 212 206 226 234 241 238 226 215 212 212 203 197 194 179 168 166 167 162 162 162 162 162 169 175 178 190 196 187 191 196 202
66 66 66 66 66 66 66 76 92 129 158 172 214 240 265 292 320 345 371 396 421 437 452 453 455 468 480 503 527 533 539 549 561 581 601 646 691 714 738 771 805 842 879 903 927 955 983 1000 1018 1039 1060 1084 1109 1137 1166 1199 1232 1257 1281 1253 1224 1219 1214 1209 1204 1219 1235 1266 1298 1309 1320 1339 1359 1386 1414 1423 1436 1452 1451 1401 1349 1300 1232 1185 1133 1093 1066 1021 983 965 954 944 933 917 917 915 908 872 841 808 751 685 620 564 525 479 483 467 457 431 420 397 378 367 349 324 306 276 248 229 209 178 164 146 150 144 157 157 138 141 137 116 104 107 110 118 130 135 125 124 133 139 148 148 124 101 83 72 72 72 72 72 72 73 72 72 72 72 72 72 72 72 72 72 72 72 72 72 72 72 72 72 72 72 72 72 72 72 72 72 72 72 72 72 72 72 72 72 72 72 72 72 72 72 72 72 72 72 72 72 72 72 72 72 72 72 72 72 72 72 72 72 72 72 72 72 72 72 72 72 72 72 72 72 72 72 72 72 72 72 72 72 72 72 72 72 72 72 72 72 72 72 72 72 72 72 72 72 72 72 72 72 72 72 72 72 72 72 72 72 72 72 72 72 72 72 72 72 72 72 72 72 72 72 72 72 72 72 72 76 72 72 72 72 87 85 97 107 100 87 88 94 99 103 98 95 107 113 125 132 135 141 152 161 172 177 175 182 189 190 183 178 191 196 194 200 208 220 227 234 243 246 253 260 268 281 281 273 267 231 199 181 177 186 194 186 194 192 192 194 202 203 209 219 217 228 242 252 251 249 241 223 201 197 189 173 158 165 168 162 162 162 162 170 174 178 183 182 175 180 187 200 213 213 202
66 66 66 66 66 66 66 73 87 123 158 168 213 244 277 299 323 346 370 397 426 442 459 459 461 465 470 478 486 495 504 518 533 553 573 609 645 671 697 731 766 807 849 868 888 920 951 970 989 1007 1025 1047 1070 1099 1127 1158 1189 1211 1233 1228 1223 1206 1189 1184 1179 1192 1205 1238 1271 1284 1298 1328 1359 1368 1378 1383 1387 1390 1387 1366 1323 1267 1245 1211 1167 1104 1066 1008 948 927 908 897 871 879 864 848 847 817 776 737 666 626 575 525 464 450 427 427 385 383 370 351 343 323 313 292 284 262 225 200 193 173 153 144 137 146 130 117 111 113 105 102 107 102 118 111 123 122 121 121 126 139 140 124 105 83 73 72 72 72 72 72 72 72 72 72 72 72 72 72 72 72 72 72 72 72 72 72 72 72 72 72 72 72 72 72 72 72 72 72 72 72 72 72 72 72 72 72 72 72 72 72 72 72 72 72 72 72 72 72 72 72 72 72 72 72 72 72 72 72 72 72 72 72 72 72 72 72 72 72 72 72 72 72 72 72 72 72 72 72 72 72 72 72 72 72 72 72 72 72 72 72 72 72 72 72 72 72 72 72 72 72 72 72 72 72 72 72 72 72 72 72 72 72 72 72 72 72 72 72 72 72 72 72 72 72 72 72 72 72 73 72 72 74 79 85 94 97 90 84 78 78 78 78 83 82 82 94 109 128 129 141 157 171 180 182 172 161 158 162 180 189 192 204 216 225 233 238 244 246 257 272 282 286 283 286 291 277 264 236 194 181 168 178 189 204 202 196 198 193 199 209 222 232 236 242 257 261 256 241 225 201 187 177 164 155 159 166 163 162 168 169 168 175 180 185 172 169 178 198 207 216 214 198 198
66 66 66 66 66 66 66 74 89 120 153 167 213 250 287 313 338 355 373 405 438 449 460 463 466 466 466 469 472 479 485 496 508 528 549 574 599 626 655 689 723 763 803 836 869 893 917 937 959 973 988 1006 1024 1057 1090 1116 1144 1162 1181 1194 1207 1186 1165 1158 1152 1164 1177 1203 1229 1247 1265 1305 1344 1358 1373 1370 1367 1357 1342 1330 1300 1269 1240 1192 1142 1118 1084 1002 965 906 872 847 839 824 795 769 768 749 724 665 619 590 521 481 452 392 367 355 359 347 318 313 303 288 274 254 233 214 199 180 167 161 156 136 128 126 131 129 109 107 102 102 106 108 107 117 109 127 128 121 128 152 155 130 102 80 72 72 75 72 72 72 72 72 72 72 72 72 79 72 72 72 72 72 72 72 72 72 72 72 72 72 72 72 72 72 72 72 72 72 72 72 72 72 72 72 72 72 72 72 72 72 72 72 72 72 72 72 72 72 72 72 72 72 72 72 72 72 72 72 72 72 72 72 72 72 72 72 72 72 72 72 72 72 72 72 72 72 72 72 72 72 72 72 72 72 72 72 72 72 72 72 72 72 72 72 72 72 72 72 72 72 72 72 72 72 72 72 72 72 72 72 72 72 72 72 72 72 72 72 72 72 72 72 72 72 72 72 72 72 73 72 86 82 78 83 88 94 78 78 78 87 78 78 82 82 82 95 121 137 143 148 151 156 155 149 145 148 167 185 192 201 211 221 236 240 244 251 257 264 271 285 290 282 275 275 271 263 245 217 184 164 169 181 191 191 195 197 199 200 207 226 235 234 239 242 238 235 224 219 199 182 168 158 155 160 172 181 178 168 166 165 164 166 164 164 175 183 192 202 208 210 207 205 219
66 66 66 66 66 66 66 75 90 118 145 179 205 243 282 320 358 365 372 421 448 463 478 472 472 467 465 466 469 472 477 485 494 506 519 539 560 584 609 641 673 708 745 798 851 869 887 907 927 939 951 967 983 1010 1038 1066 1095 1115 1136 1152 1168 1157 1145 1137 1130 1140 1149 1162 1175 1198 1222 1270 1317 1344 1372 1369 1367 1344 1321 1300 1295 1270 1238 1200 1162 1135 1095 1029 967 920 876 824 789 756 738 725 698 678 645 613 575 530 491 437 401 358 324 310 306 293 278 273 260 258 234 211 203 181 173 165 148 143 136 129 127 130 126 139 114 102 106 107 98 111 107 107 118 121 114 119 121 132 150 137 101 84 72 72 72 72 72 72 72 72 72 72 72 72 72 72 72 72 72 72 72 72 72 72 72 72 72 72 72 72 72 72 72 72 72 72 72 72 72 72 72 72 72 72 72 72 72 72 72 72 72 72 72 72 72 72 72 72 72 72 72 72 72 72 72 72 72 72 72 72 72 72 72 72 72 72 72 72 72 72 72 72 72 72 72 72 72 72 72 72 72 72 72 72 72 72 72 72 72 72 72 72 72 72 72 72 72 72 72 72 72 72 72 72 72 72 72 72 72 72 72 72 72 72 72 72 72 72 72 72 72 72 72 72 73 75 74 85 95 91 81 78 78 78 78 81 80 78 78 78 78 79 93 105 120 138 135 140 139 133 122 122 143 165 171 179 199 207 218 229 245 256 253 259 261 270 270 270 288 280 271 260 247 233 210 185 164 168 172 185 203 206 208 202 198 200 218 228 227 226 229 222 211 200 195 193 174 162 153 156 163 174 182 183 176 170 164 164 164 164 167 181 187 186 183 189 201 204 205 208 212
66 66 66 66 66 66 66 66 88 114 156 166 195 233 271 314 358 367 376 406 436 460 485 480 476 471 466 465 464 464 466 475 479 488 496 514 534 552 571 594 618 660 703 759 815 838 863 880 898 905 913 929 946 969 992 1018 1044 1068 1093 1109 1125 1124 1123 1119 1116 1121 1127 1128 1129 1153 1178 1225 1272 1308 1345 1354 1363 1342 1319 1281 1222 1195 1172 1160 1134 1105 1076 1041 978 926 867 827 764 719 692 673 651 632 607 567 530 479 438 394 345 314 283 261 256 248 242 236 233 231 221 207 191 166 138 127 130 131 126 112 126 118 117 120 115 103 102 102 98 99 110 118 114 107 107 112 117 117 113 101 94 86 72 72 72 72 72 72 72 72 72 72 72 72 72 73 72 72 72 72 72 72 72 72 72 72 72 72 72 72 72 72 72 72 72 72 72 72 72 72 72 72 72 72 72 72 72 72 72 72 72 72 72 72 72 72 72 72 72 72 72 72 72 72 72 72 72 72 72 72 72 72 72 72 72 72 72 72 72 72 72 72 72 72 72 72 72 72 72 72 72 72 72 72 72 72 72 72 72 72 72 72 72 72 72 72 72 72 72 72 72 72 72 72 72 72 72 72 72 72 72 72 72 72 72 72 72 72 72 72 72 72 76 74 81 85 88 88 89 84 80 83 80 85 91 80 78 78 80 83 79 86 103 110 114 128 123 118 112 118 125 143 166 178 188 198 209 215 219 232 243 250 253 254 259 257 252 251 256 244 224 209 202 187 189 173 167 165 169 176 188 210 209 205 197 194 208 204 211 203 189 176 175 168 164 157 157 153 154 162 166 176 196 182 170 164 164 164 164 164 168 173 184 190 180 177 188 192 196 202 198
66 66 66 66 66 66 66 66 86 111 145 170 190 224 263 302 342 363 385 400 427 441 467 471 475 474 474 473 465 464 465 467 469 472 480 495 510 526 543 560 578 622 667 715 764 800 836 852 869 873 878 893 909 931 953 974 996 1022 1048 1067 1086 1092 1099 1104 1109 1107 1107 1102 1097 1116 1136 1177 1219 1256 1294 1310 1326 1313 1302 1263 1205 1158 1122 1081 1070 1048 1016 990 942 899 849 817 764 706 653 616 591 581 533 518 488 460 425 356 327 276 250 226 230 229 222 209 197 196 190 176 175 144 125 117 111 98 102 100 99 99 99 109 108 113 105 110 98 113 119 105 104 105 103 98 102 102 89 86 75 72 72 72 72 72 72 72 72 72 72 72 72 72 72 74 72 72 72 72 72 72 72 72 72 72 72 72 72 72 72 72 72 72 72 72 72 72 72 72 72 72 72 72 72 72 72 72 72 72 72 72 72 72 72 72 72 73 73 72 72 72 72 72 72 72 72 72 72 72 72 72 72 72 72 72 72 72 72 72 72 72 72 72 72 72 72 72 72 72 72 72 72 72 72 72 72 72 72 72 72 72 72 72 72 72 72 72 72 72 72 72 72 72 72 72 72 72 72 72 72 72 72 72 72 72 72 72 72 72 72 72 72 80 83 87 88 87 77 79 84 79 84 83 88 85 84 84 77 78 88 87 96 100 98 97 98 104 114 124 138 156 173 184 194 203 210 217 219 217 225 229 230 233 235 239 240 225 220 202 186 168 171 189 190 175 167 157 155 175 178 186 185 184 181 175 183 194 193 182 166 152 147 149 158 155 145 148 148 165 187 198 190 179 164 169 169 167 173 178 178 179 181 175 175 177 178 182 179 185 185
