ncols        597
nrows        32
xllcorner    -118.337638889
yllcorner    36.5143055556
cellsize     0.000277777778
NODATA_value -9999
3382 3377 3373 3364 3360 3358 3357 3358 3360 3360 3360 3359 3356 3355 3353 3358 3363 3366 3373 3383 3398 3413 3420 3425 3428 3432 3435 3439 3439 3440 3441 3441 3438 3437 3438 3439 3440 3441 3443 3443 3445 3449 3455 3459 3463 3466 3467 3469 3471 3473 3476 3480 3484 3486 3487 3488 3490 3493 3494 3495 3497 3498 3497 3496 3499 3499 3499 3498 3499 3502 3506 3512 3513 3516 3522 3527 3531 3534 3534 3538 3539 3541 3543 3545 3546 3547 3546 3543 3542 3543 3544 3545 3547 3550 3550 3551 3552 3552 3553 3550 3552 3554 3554 3552 3550 3547 3548 3548 3550 3555 3562 3568 3574 3579 3584 3595 3606 3619 3634 3646 3660 3678 3699 3714 3729 3743 3755 3766 3777 3796 3811 3823 3845 3869 3888 3905 3917 3922 3923 3905 3882 3874 3870 3863 3859 3853 3852 3849 3844 3840 3842 3845 3848 3847 3846 3843 3846 3849 3849 3855 3862 3865 3868 3869 3876 3878 3880 3883 3882 3882 3884 3886 3887 3888 3888 3890 3896 3902 3905 3905 3905 3902 3899 3898 3898 3896 3892 3887 3882 3876 3868 3861 3855 3849 3842 3834 3823 3804 3772 3731 3693 3670 3661 3648 3641 3633 3621 3607 3598 3590 3583 3574 3567 3561 3559 3557 3555 3556 3560 3565 3573 3583 3597 3611 3626 3640 3651 3659 3654 3633 3620 3591 3573 3564 3557 3548 3532 3525 3513 3490 3480 3466 3461 3452 3442 3432 3421 3413 3405 3400 3398 3397 3400 3401 3402 3404 3405 3406 3407 3408 3409 3408 3407 3409 3411 3413 3415 3419 3422 3429 3435 3443 3453 3465 3475 3482 3494 3506 3527 3542 3567 3587 3599 3616 3632 3647 3667 3688 3700 3714 3727 3743 3763 3786 3805 3829 3842 3856 3869 3889 3904 3917 3928 3943 3961 3974 3994 4015 4034 4048 4065 4079 4090 4101 4108 4113 4120 4125 4131 4132 4131 4129 4129 4133 4133 4136 4139 4146 4157 4156 4156 4157 4166 4171 4178 4189 4198 4205 4207 4210 4209 4203 4193 4191 4191 4194 4198 4212 4222 4237 4248 4256 4263 4266 4265 4263 4258 4251 4244 4239 4230 4219 4196 4178 4163 4126 4107 4084 4065 4054 4043 4041 4043 4038 4029 4020 4012 4006 4000 3998 3992 3980 3959 3951 3943 3930 3927 3919 3911 3904 3899 3894 3889 3886 3882 3876 3870 3865 3862 3855 3851 3846 3841 3837 3835 3831 3822 3812 3800 3791 3771 3751 3733 3715 3706 3695 3685 3680 3674 3666 3658 3651 3637 3624 3619 3616 3612 3606 3599 3592 3587 3580 3576 3578 3579 3577 3577 3574 3573 3573 3578 3585 3593 3602 3609 3615 3624 3627 3623 3619 3611 3602 3593 3586 3575 3559 3541 3525 3502 3484 3469 3456 3445 3436 3424 3416 3408 3401 3393 3389 3387 3382 3372 3360 3352 3345 3341 3337 3330 3325 3321 3315 3309 3306 3303 3297 3292 3287 3279 3269 3264 3262 3260 3258 3255 3252 3247 3242 3238 3234 3231 3227 3224 3219 3213 3208 3203 3199 3193 3184 3179 3172 3165 3156 3149 3146 3140 3133 3127 3121 3114 3107 3100 3095 3093 3093 3092 3092 3090 3083 3078 3077 3076 3074 3074 3077 3079 3080 3080 3079 3080 3076 3067 3061 3056 3053 3056 3057 3057 3057 3055 3052 3058 3060 3063 3065 3065 3068 3073 3076 3078 3069 3055 3036 3007 2984 2962 2942 2928 2912 2868 2849 2837 2831 2818 2802 2779 2754 2728 2712 2698 2691 2691 2694 2696 2700 2701 2704 2709 2718 2728 2738 2749 2748 2744 2743 2747
3382 3377 3372 3363 3357 3358 3357 3357 3357 3355 3356 3357 3355 3354 3354 3356 3360 3366 3372 3383 3397 3409 3417 3423 3426 3430 3434 3437 3435 3437 3436 3437 3436 3435 3435 3436 3436 3438 3439 3440 3443 3447 3452 3454 3456 3456 3458 3461 3464 3468 3473 3477 3480 3483 3484 3486 3486 3486 3487 3488 3488 3489 3489 3490 3491 3492 3489 3488 3486 3486 3493 3500 3505 3508 3515 3519 3523 3525 3525 3527 3527 3532 3535 3536 3538 3540 3539 3539 3539 3538 3538 3541 3545 3548 3548 3549 3548 3547 3548 3548 3546 3548 3547 3545 3548 3549 3549 3553 3554 3559 3564 3572 3580 3587 3595 3607 3622 3639 3651 3662 3674 3695 3713 3728 3743 3757 3769 3778 3794 3809 3815 3838 3865 3885 3904 3917 3919 3913 3895 3874 3862 3854 3846 3837 3831 3829 3826 3827 3823 3822 3824 3823 3826 3828 3826 3826 3829 3830 3835 3839 3841 3846 3848 3853 3856 3860 3864 3866 3869 3871 3874 3878 3880 3883 3884 3885 3889 3897 3902 3905 3907 3908 3904 3901 3899 3896 3894 3892 3889 3885 3876 3869 3862 3858 3851 3844 3828 3799 3767 3729 3703 3682 3670 3658 3651 3645 3629 3612 3599 3584 3575 3566 3560 3552 3548 3545 3542 3543 3544 3548 3553 3564 3582 3595 3608 3624 3638 3647 3645 3639 3623 3594 3574 3561 3549 3531 3525 3511 3497 3477 3466 3459 3453 3448 3441 3432 3424 3416 3407 3401 3398 3399 3401 3404 3404 3405 3406 3407 3408 3408 3408 3407 3406 3408 3410 3414 3418 3420 3422 3427 3434 3441 3453 3464 3473 3480 3490 3507 3525 3541 3561 3582 3602 3619 3636 3652 3673 3690 3699 3715 3732 3752 3771 3794 3816 3834 3847 3860 3876 3898 3916 3929 3944 3959 3977 3995 4016 4032 4049 4060 4070 4080 4090 4098 4105 4111 4118 4125 4131 4134 4137 4141 4144 4149 4153 4157 4163 4171 4178 4180 4184 4186 4188 4197 4212 4217 4219 4218 4223 4226 4228 4225 4217 4218 4223 4219 4222 4231 4239 4246 4252 4257 4260 4258 4259 4257 4253 4250 4247 4243 4240 4233 4216 4184 4158 4139 4107 4102 4082 4073 4063 4058 4056 4047 4039 4030 4027 4018 4007 4000 3990 3978 3965 3952 3939 3929 3928 3923 3911 3903 3893 3888 3884 3881 3875 3871 3865 3860 3853 3848 3841 3836 3832 3831 3827 3821 3813 3800 3788 3772 3757 3748 3730 3709 3698 3688 3682 3672 3666 3656 3651 3649 3638 3629 3624 3619 3614 3609 3602 3590 3583 3577 3569 3566 3564 3561 3561 3559 3564 3567 3567 3568 3574 3580 3589 3600 3610 3615 3615 3613 3608 3602 3590 3579 3567 3551 3533 3511 3493 3475 3457 3442 3429 3419 3408 3401 3395 3386 3379 3375 3371 3366 3357 3349 3342 3333 3329 3327 3324 3320 3315 3309 3304 3300 3295 3292 3288 3284 3276 3269 3264 3262 3260 3258 3256 3253 3249 3243 3238 3232 3229 3226 3221 3216 3212 3209 3203 3198 3192 3185 3180 3175 3171 3163 3153 3147 3143 3137 3132 3126 3121 3116 3111 3107 3104 3104 3103 3103 3101 3096 3092 3092 3091 3088 3087 3088 3092 3090 3088 3088 3088 3088 3084 3079 3073 3071 3072 3075 3079 3082 3073 3070 3086 3085 3088 3091 3092 3092 3093 3092 3088 3079 3065 3044 3014 2984 2962 2949 2942 2917 2863 2845 2825 2811 2804 2791 2776 2761 2745 2727 2715 2710 2711 2716 2721 2726 2728 2728 2733 2737 2745 2757 2767 2768 2769 2770 2773
3381 3376 3370 3361 3359 3357 3357 3357 3356 3354 3353 3354 3354 3355 3355 3358 3362 3367 3373 3382 3392 3402 3410 3416 3421 3424 3426 3428 3430 3433 3434 3434 3434 3433 3432 3432 3434 3435 3438 3442 3445 3446 3448 3450 3450 3451 3454 3457 3461 3466 3469 3472 3476 3479 3481 3483 3483 3482 3484 3480 3477 3475 3474 3474 3476 3476 3472 3471 3470 3474 3478 3483 3489 3497 3503 3507 3510 3512 3513 3515 3518 3520 3521 3524 3525 3529 3530 3532 3534 3534 3534 3533 3536 3538 3539 3539 3537 3536 3536 3537 3537 3539 3543 3549 3552 3556 3560 3564 3565 3566 3569 3574 3582 3592 3603 3613 3627 3647 3661 3676 3689 3707 3723 3738 3752 3767 3781 3790 3805 3821 3832 3859 3876 3896 3914 3919 3918 3896 3870 3851 3838 3830 3821 3813 3811 3808 3807 3805 3804 3807 3808 3808 3804 3805 3806 3806 3811 3813 3815 3816 3817 3819 3825 3830 3833 3839 3844 3847 3848 3854 3859 3864 3868 3869 3872 3876 3882 3891 3897 3901 3903 3905 3906 3903 3903 3900 3898 3897 3895 3890 3885 3880 3874 3866 3859 3849 3821 3794 3763 3742 3727 3705 3684 3667 3659 3650 3639 3623 3603 3581 3568 3561 3555 3548 3545 3543 3541 3540 3540 3542 3547 3552 3565 3581 3593 3605 3619 3631 3633 3626 3615 3606 3592 3560 3535 3520 3507 3496 3486 3472 3461 3453 3448 3443 3437 3428 3423 3417 3410 3404 3402 3400 3401 3402 3404 3404 3405 3407 3407 3405 3404 3403 3403 3404 3409 3412 3416 3419 3421 3425 3431 3439 3450 3463 3472 3482 3495 3509 3524 3538 3556 3575 3596 3614 3633 3650 3669 3684 3701 3723 3743 3761 3780 3803 3825 3844 3855 3867 3884 3906 3925 3942 3960 3976 3994 4014 4035 4049 4059 4066 4073 4080 4090 4100 4109 4116 4122 4128 4133 4137 4143 4149 4154 4160 4165 4172 4179 4184 4189 4192 4199 4203 4211 4221 4225 4227 4229 4232 4236 4238 4236 4234 4234 4237 4237 4239 4240 4243 4246 4249 4251 4255 4258 4256 4254 4255 4252 4250 4245 4241 4242 4232 4217 4193 4165 4132 4112 4102 4089 4084 4078 4070 4065 4061 4041 4032 4021 4014 4006 3993 3981 3972 3961 3947 3934 3924 3921 3915 3905 3894 3887 3884 3878 3872 3867 3862 3854 3852 3845 3839 3834 3829 3825 3824 3823 3818 3810 3789 3778 3768 3754 3739 3719 3708 3698 3689 3680 3673 3665 3658 3652 3645 3638 3633 3628 3622 3619 3614 3605 3597 3587 3581 3576 3569 3565 3561 3553 3549 3547 3550 3553 3554 3554 3555 3559 3570 3589 3601 3605 3604 3599 3595 3575 3564 3560 3539 3514 3494 3477 3461 3438 3424 3421 3411 3401 3391 3383 3373 3367 3363 3358 3354 3350 3343 3334 3326 3322 3322 3318 3311 3307 3303 3300 3296 3291 3289 3287 3283 3275 3270 3268 3266 3265 3263 3261 3257 3252 3244 3237 3232 3229 3225 3222 3216 3210 3208 3204 3200 3194 3187 3179 3172 3168 3165 3160 3158 3153 3151 3148 3150 3146 3138 3132 3129 3126 3125 3124 3122 3119 3119 3118 3119 3118 3116 3114 3110 3107 3104 3101 3098 3096 3095 3095 3096 3095 3094 3093 3098 3102 3105 3095 3098 3101 3112 3116 3123 3120 3117 3113 3107 3098 3088 3076 3057 3021 3002 2970 2953 2942 2907 2875 2836 2817 2799 2786 2781 2772 2765 2758 2746 2740 2735 2734 2740 2743 2747 2744 2746 2752 2756 2767 2778 2787 2794 2793 2790 2793
3376 3372 3367 3362 3359 3356 3355 3355 3354 3352 3351 3352 3353 3354 3356 3359 3364 3366 3372 3378 3387 3396 3404 3410 3416 3420 3423 3425 3427 3429 3430 3431 3431 3430 3430 3433 3433 3436 3441 3445 3446 3447 3446 3445 3445 3447 3450 3453 3458 3462 3467 3469 3471 3472 3472 3476 3476 3475 3472 3469 3466 3464 3463 3461 3457 3453 3449 3450 3455 3461 3466 3471 3478 3486 3493 3496 3497 3499 3502 3504 3504 3506 3507 3507 3510 3514 3518 3519 3523 3525 3526 3525 3525 3524 3521 3519 3520 3519 3518 3521 3526 3535 3542 3548 3555 3560 3569 3573 3573 3571 3573 3579 3587 3598 3611 3622 3638 3656 3676 3692 3705 3721 3735 3748 3760 3775 3791 3807 3819 3830 3848 3873 3889 3908 3916 3916 3904 3868 3851 3831 3817 3807 3801 3797 3796 3792 3790 3789 3789 3788 3790 3788 3788 3787 3788 3788 3792 3795 3796 3797 3798 3798 3800 3802 3805 3805 3802 3802 3807 3813 3828 3839 3848 3852 3856 3862 3871 3879 3887 3892 3895 3899 3903 3906 3905 3906 3904 3903 3900 3896 3892 3887 3880 3870 3859 3850 3826 3796 3770 3752 3735 3720 3702 3686 3671 3659 3650 3634 3614 3578 3569 3560 3553 3547 3546 3545 3544 3542 3542 3542 3544 3549 3560 3569 3579 3589 3596 3604 3612 3612 3608 3605 3597 3577 3533 3513 3502 3490 3479 3466 3451 3442 3436 3432 3426 3422 3419 3415 3411 3407 3404 3402 3401 3398 3401 3402 3402 3403 3401 3400 3400 3399 3401 3402 3405 3408 3409 3413 3418 3423 3431 3439 3450 3462 3474 3487 3498 3512 3524 3536 3550 3572 3591 3610 3628 3647 3665 3684 3706 3728 3748 3766 3784 3802 3825 3844 3861 3877 3892 3910 3933 3952 3970 3987 4005 4022 4040 4054 4062 4070 4076 4084 4094 4102 4110 4118 4123 4132 4139 4146 4153 4159 4166 4172 4179 4187 4190 4193 4197 4202 4208 4213 4218 4224 4227 4232 4234 4236 4239 4240 4240 4242 4241 4240 4240 4242 4243 4244 4247 4246 4247 4248 4251 4251 4251 4249 4248 4247 4243 4236 4232 4228 4220 4195 4160 4131 4118 4107 4102 4096 4091 4077 4066 4060 4036 4020 4015 4003 3992 3978 3970 3962 3956 3944 3931 3920 3913 3903 3894 3883 3877 3872 3867 3862 3858 3853 3848 3841 3835 3831 3829 3827 3825 3822 3818 3817 3808 3791 3777 3759 3747 3742 3721 3703 3688 3680 3673 3666 3662 3655 3649 3645 3640 3635 3631 3628 3625 3617 3608 3597 3591 3585 3582 3578 3574 3566 3559 3554 3546 3538 3530 3530 3533 3536 3537 3543 3551 3557 3571 3578 3579 3575 3568 3554 3527 3510 3494 3478 3461 3447 3434 3425 3415 3402 3391 3383 3377 3371 3365 3358 3351 3345 3342 3336 3330 3326 3320 3315 3311 3306 3304 3302 3300 3296 3293 3289 3286 3282 3278 3275 3273 3271 3269 3267 3264 3261 3256 3247 3240 3234 3230 3226 3221 3215 3208 3205 3205 3200 3193 3187 3180 3177 3177 3179 3180 3182 3182 3185 3182 3180 3173 3164 3156 3149 3147 3145 3144 3142 3141 3144 3150 3150 3145 3140 3135 3127 3122 3118 3115 3107 3104 3105 3111 3113 3114 3118 3119 3121 3121 3121 3122 3129 3131 3134 3141 3152 3149 3148 3136 3120 3106 3094 3082 3065 3038 2997 2974 2951 2942 2908 2882 2842 2822 2802 2792 2783 2774 2769 2768 2764 2762 2762 2767 2773 2771 2768 2765 2767 2770 2776 2784 2797 2807 2810 2809 2803 2807
3372 3368 3365 3363 3360 3357 3354 3353 3352 3350 3348 3349 3350 3353 3358 3363 3365 3368 3371 3377 3385 3393 3401 3408 3412 3415 3418 3421 3423 3425 3425 3426 3425 3426 3428 3431 3434 3438 3442 3445 3447 3446 3444 3441 3442 3442 3444 3448 3454 3457 3461 3463 3464 3464 3464 3468 3467 3463 3458 3454 3452 3450 3446 3441 3433 3428 3428 3433 3439 3447 3454 3459 3466 3473 3480 3485 3484 3486 3486 3487 3488 3490 3492 3493 3495 3500 3506 3509 3510 3510 3510 3509 3508 3508 3506 3504 3505 3508 3511 3518 3526 3533 3541 3548 3554 3562 3572 3577 3578 3579 3584 3589 3598 3609 3619 3635 3656 3677 3691 3707 3716 3728 3744 3758 3770 3786 3804 3818 3831 3848 3865 3890 3906 3916 3920 3909 3877 3851 3836 3819 3802 3791 3784 3777 3774 3771 3769 3769 3767 3764 3761 3762 3764 3766 3765 3767 3769 3772 3773 3773 3773 3772 3767 3761 3759 3763 3768 3773 3778 3783 3793 3808 3820 3833 3843 3852 3863 3873 3880 3885 3889 3895 3899 3903 3905 3906 3907 3907 3905 3901 3895 3889 3880 3868 3857 3843 3824 3810 3787 3770 3742 3725 3713 3693 3678 3667 3656 3642 3615 3588 3573 3560 3550 3545 3544 3545 3546 3546 3546 3543 3540 3547 3555 3562 3568 3575 3581 3589 3595 3600 3601 3597 3591 3577 3557 3522 3498 3481 3473 3460 3441 3431 3425 3420 3418 3416 3415 3412 3408 3404 3402 3398 3394 3395 3395 3396 3398 3401 3400 3399 3397 3397 3398 3400 3401 3402 3405 3408 3414 3422 3432 3444 3457 3470 3480 3491 3502 3514 3525 3536 3550 3566 3589 3607 3626 3648 3668 3687 3707 3726 3747 3764 3782 3803 3822 3844 3861 3876 3893 3913 3936 3959 3973 3991 4010 4024 4037 4053 4060 4070 4079 4090 4098 4107 4115 4123 4130 4136 4142 4150 4159 4167 4175 4183 4189 4195 4198 4200 4203 4206 4210 4215 4218 4221 4225 4229 4231 4235 4236 4238 4240 4241 4243 4243 4242 4242 4241 4241 4243 4241 4240 4239 4240 4242 4243 4243 4240 4238 4233 4230 4225 4216 4199 4177 4159 4142 4125 4112 4108 4102 4092 4080 4065 4048 4032 4020 4010 3995 3980 3971 3962 3953 3945 3934 3926 3917 3908 3899 3889 3878 3874 3866 3859 3855 3855 3850 3844 3839 3834 3829 3828 3828 3827 3824 3821 3812 3810 3795 3779 3762 3758 3752 3735 3705 3688 3675 3667 3664 3658 3652 3644 3638 3633 3629 3627 3624 3622 3620 3611 3601 3592 3583 3578 3576 3570 3566 3561 3554 3543 3533 3519 3512 3510 3508 3506 3507 3508 3515 3526 3531 3538 3540 3530 3516 3502 3487 3474 3464 3451 3439 3432 3422 3405 3392 3386 3382 3376 3369 3363 3356 3347 3340 3334 3330 3326 3325 3321 3318 3314 3312 3309 3307 3304 3301 3296 3290 3285 3280 3277 3276 3275 3273 3270 3268 3267 3265 3262 3255 3248 3240 3233 3229 3224 3218 3210 3208 3204 3202 3200 3199 3198 3199 3202 3204 3204 3205 3205 3204 3206 3203 3201 3195 3190 3188 3184 3178 3171 3172 3173 3172 3174 3170 3166 3160 3152 3143 3134 3129 3126 3119 3121 3121 3124 3129 3134 3134 3143 3145 3147 3148 3151 3152 3152 3149 3157 3165 3164 3160 3145 3133 3112 3097 3083 3068 3034 3002 2976 2956 2946 2918 2893 2857 2845 2816 2800 2793 2789 2783 2781 2783 2785 2795 2800 2801 2797 2791 2792 2794 2791 2793 2802 2816 2825 2829 2826 2821 2823
3366 3362 3360 3358 3357 3355 3351 3349 3348 3347 3346 3347 3348 3353 3358 3363 3366 3368 3372 3377 3383 3390 3395 3402 3406 3410 3413 3418 3418 3418 3419 3420 3421 3423 3425 3428 3433 3437 3441 3443 3443 3442 3441 3439 3437 3436 3438 3440 3445 3448 3450 3452 3453 3453 3451 3449 3449 3443 3441 3439 3438 3436 3431 3425 3422 3421 3422 3425 3428 3433 3440 3446 3451 3454 3455 3456 3459 3463 3468 3471 3473 3475 3478 3481 3484 3488 3493 3494 3496 3497 3497 3496 3494 3491 3489 3492 3494 3498 3506 3516 3525 3533 3541 3548 3559 3566 3574 3580 3584 3590 3598 3608 3619 3633 3649 3663 3682 3701 3716 3725 3734 3744 3759 3773 3788 3805 3818 3830 3842 3858 3876 3902 3918 3922 3920 3895 3863 3841 3820 3806 3792 3780 3771 3763 3757 3752 3743 3739 3739 3739 3742 3742 3743 3743 3742 3740 3740 3743 3745 3746 3745 3742 3739 3738 3738 3741 3746 3751 3754 3759 3763 3774 3785 3800 3815 3830 3846 3859 3869 3875 3882 3888 3894 3898 3900 3900 3902 3903 3902 3899 3894 3889 3880 3873 3863 3846 3833 3823 3808 3787 3752 3738 3715 3698 3685 3668 3654 3637 3615 3591 3579 3565 3554 3546 3544 3545 3546 3546 3543 3546 3541 3542 3547 3552 3556 3562 3567 3572 3578 3583 3587 3586 3579 3569 3555 3521 3495 3478 3467 3455 3437 3424 3418 3414 3414 3412 3411 3410 3408 3406 3401 3395 3394 3392 3393 3394 3396 3397 3396 3395 3393 3393 3393 3395 3395 3396 3398 3403 3410 3420 3433 3448 3462 3474 3484 3495 3505 3515 3525 3535 3549 3566 3586 3604 3624 3647 3667 3688 3704 3722 3741 3757 3775 3797 3817 3840 3861 3876 3893 3917 3943 3959 3975 3990 4010 4024 4039 4052 4063 4072 4082 4093 4102 4110 4117 4126 4132 4140 4148 4157 4167 4176 4184 4191 4194 4196 4196 4197 4201 4205 4211 4213 4215 4218 4222 4223 4224 4225 4226 4229 4230 4233 4234 4235 4237 4240 4239 4237 4234 4230 4232 4231 4230 4231 4232 4232 4228 4222 4216 4207 4198 4188 4173 4159 4149 4136 4120 4109 4100 4090 4080 4067 4052 4038 4026 4016 4004 3991 3977 3964 3956 3944 3936 3926 3919 3909 3902 3896 3887 3879 3873 3865 3859 3854 3853 3850 3846 3844 3841 3838 3834 3830 3827 3821 3817 3813 3810 3799 3787 3775 3767 3753 3733 3717 3697 3681 3672 3665 3658 3649 3638 3631 3628 3625 3623 3622 3619 3617 3612 3604 3594 3587 3582 3577 3570 3561 3550 3544 3538 3526 3508 3494 3488 3486 3480 3479 3481 3486 3494 3497 3496 3495 3494 3488 3484 3470 3462 3454 3446 3437 3429 3415 3401 3392 3387 3382 3375 3367 3363 3351 3341 3333 3329 3327 3324 3323 3322 3322 3320 3318 3314 3309 3304 3301 3295 3290 3285 3280 3277 3276 3274 3273 3272 3269 3269 3267 3266 3260 3254 3245 3236 3231 3228 3227 3227 3228 3228 3229 3228 3229 3234 3227 3228 3224 3223 3220 3221 3221 3216 3221 3225 3224 3220 3220 3214 3209 3205 3198 3193 3194 3192 3189 3186 3179 3172 3164 3159 3157 3151 3148 3145 3140 3145 3152 3158 3157 3161 3164 3172 3175 3179 3179 3172 3179 3182 3184 3171 3169 3156 3140 3120 3100 3085 3069 3045 3005 2971 2949 2938 2914 2900 2877 2854 2841 2819 2811 2806 2801 2802 2806 2811 2819 2823 2820 2817 2820 2819 2817 2812 2812 2821 2831 2841 2845 2843 2839 2849
3360 3356 3354 3352 3351 3349 3347 3345 3344 3344 3344 3346 3349 3356 3361 3363 3365 3367 3370 3375 3382 3387 3390 3395 3398 3402 3405 3408 3410 3413 3415 3417 3421 3424 3425 3428 3432 3436 3439 3438 3437 3436 3436 3434 3433 3432 3434 3437 3439 3440 3442 3443 3441 3437 3434 3428 3426 3424 3423 3423 3423 3420 3417 3415 3414 3414 3415 3417 3421 3426 3431 3436 3439 3439 3441 3442 3443 3445 3451 3456 3458 3459 3462 3464 3468 3472 3475 3476 3476 3479 3481 3479 3478 3478 3480 3484 3490 3496 3503 3514 3522 3532 3543 3553 3564 3571 3577 3584 3592 3603 3614 3626 3644 3662 3678 3691 3707 3723 3738 3749 3757 3764 3776 3789 3804 3822 3833 3847 3861 3873 3891 3911 3924 3927 3919 3886 3838 3821 3811 3793 3779 3768 3760 3750 3742 3732 3726 3723 3724 3728 3731 3731 3729 3729 3726 3723 3723 3721 3721 3721 3723 3721 3721 3722 3724 3727 3729 3730 3732 3736 3740 3744 3752 3765 3781 3801 3823 3842 3854 3865 3873 3880 3886 3890 3893 3894 3897 3898 3898 3896 3891 3887 3880 3876 3866 3855 3843 3833 3822 3802 3782 3742 3724 3703 3686 3665 3650 3632 3617 3600 3585 3573 3559 3548 3545 3545 3546 3546 3545 3544 3541 3540 3541 3542 3545 3548 3553 3560 3564 3569 3571 3571 3566 3556 3545 3516 3489 3471 3462 3452 3440 3427 3420 3414 3412 3412 3411 3410 3408 3405 3405 3396 3395 3392 3392 3392 3393 3394 3394 3393 3391 3390 3389 3391 3391 3393 3396 3402 3410 3422 3438 3450 3463 3476 3488 3497 3505 3515 3524 3535 3552 3571 3592 3608 3627 3646 3665 3687 3707 3723 3745 3764 3781 3802 3822 3845 3863 3880 3896 3917 3941 3960 3977 3992 4010 4026 4039 4052 4064 4076 4086 4094 4103 4111 4118 4126 4136 4142 4150 4159 4169 4176 4184 4188 4189 4189 4189 4192 4195 4198 4201 4204 4206 4211 4212 4211 4212 4213 4219 4223 4228 4230 4229 4228 4230 4233 4233 4230 4227 4228 4222 4224 4223 4223 4221 4216 4209 4200 4193 4183 4176 4165 4156 4146 4134 4122 4113 4107 4099 4087 4072 4057 4041 4029 4017 4007 3998 3985 3975 3963 3951 3938 3930 3921 3911 3902 3896 3883 3882 3878 3871 3867 3863 3854 3853 3850 3852 3849 3846 3844 3839 3834 3825 3820 3813 3812 3804 3801 3794 3785 3770 3754 3743 3729 3710 3692 3682 3673 3665 3654 3640 3631 3626 3624 3619 3616 3615 3612 3607 3601 3591 3588 3581 3578 3570 3560 3547 3537 3529 3509 3489 3474 3467 3466 3460 3459 3461 3465 3467 3472 3473 3478 3479 3479 3476 3467 3462 3456 3448 3438 3425 3415 3399 3391 3385 3377 3371 3363 3358 3353 3344 3336 3330 3329 3327 3326 3324 3321 3321 3318 3314 3311 3307 3305 3300 3294 3287 3282 3278 3276 3276 3277 3279 3279 3276 3275 3272 3268 3262 3255 3249 3245 3243 3242 3247 3250 3252 3254 3252 3257 3257 3262 3263 3254 3246 3244 3248 3249 3245 3247 3249 3249 3244 3238 3233 3231 3226 3219 3219 3216 3213 3213 3211 3206 3199 3195 3186 3183 3184 3177 3165 3157 3158 3169 3172 3178 3184 3189 3193 3199 3203 3205 3199 3197 3200 3187 3179 3162 3149 3135 3115 3095 3077 3059 3039 3010 2974 2942 2935 2920 2905 2896 2868 2851 2845 2832 2828 2824 2824 2830 2833 2833 2842 2841 2836 2836 2837 2833 2827 2827 2834 2844 2849 2855 2860 2857 2867
3355 3353 3350 3349 3348 3347 3345 3342 3340 3340 3342 3345 3349 3353 3358 3360 3361 3363 3366 3369 3376 3383 3387 3391 3394 3399 3403 3406 3409 3412 3414 3416 3421 3426 3429 3430 3430 3433 3434 3435 3434 3433 3429 3427 3428 3429 3430 3432 3432 3432 3433 3431 3427 3422 3416 3413 3411 3410 3410 3409 3407 3405 3403 3403 3404 3404 3405 3407 3409 3413 3417 3422 3425 3429 3434 3436 3437 3437 3439 3439 3438 3438 3441 3446 3451 3457 3461 3463 3462 3460 3460 3461 3463 3465 3473 3478 3485 3494 3503 3513 3524 3534 3547 3558 3568 3576 3583 3594 3611 3624 3633 3648 3665 3681 3695 3708 3726 3742 3753 3764 3775 3787 3796 3807 3822 3842 3854 3865 3872 3889 3909 3930 3932 3932 3927 3876 3836 3806 3797 3783 3769 3757 3748 3737 3729 3718 3713 3713 3714 3713 3712 3706 3702 3701 3701 3702 3703 3707 3713 3715 3716 3716 3715 3715 3711 3709 3707 3707 3709 3715 3721 3728 3733 3742 3756 3776 3801 3821 3838 3853 3862 3871 3878 3882 3884 3887 3890 3893 3897 3896 3891 3886 3883 3879 3875 3866 3851 3841 3830 3818 3802 3764 3726 3699 3692 3662 3644 3632 3622 3607 3591 3576 3564 3556 3547 3546 3545 3546 3546 3546 3544 3541 3539 3541 3542 3543 3547 3550 3554 3558 3560 3558 3552 3547 3535 3520 3496 3471 3459 3453 3444 3431 3419 3413 3411 3410 3411 3412 3409 3407 3403 3398 3395 3393 3392 3390 3389 3389 3390 3390 3389 3389 3391 3391 3392 3395 3399 3408 3417 3429 3443 3453 3464 3477 3491 3501 3510 3520 3530 3542 3558 3576 3595 3612 3630 3649 3668 3690 3712 3734 3752 3766 3782 3807 3826 3849 3866 3882 3899 3921 3944 3963 3981 3994 4009 4025 4040 4053 4065 4073 4083 4092 4105 4114 4120 4127 4136 4141 4145 4152 4159 4167 4174 4179 4181 4183 4184 4184 4182 4182 4184 4188 4190 4194 4198 4199 4201 4206 4212 4216 4219 4218 4219 4219 4221 4220 4220 4220 4215 4216 4214 4215 4214 4213 4204 4190 4175 4168 4166 4161 4154 4145 4139 4133 4124 4115 4105 4100 4095 4083 4066 4045 4031 4018 4007 4000 3992 3980 3971 3960 3950 3934 3927 3918 3906 3900 3894 3888 3887 3884 3876 3870 3867 3861 3855 3853 3853 3851 3848 3846 3841 3836 3827 3825 3820 3815 3812 3806 3802 3790 3777 3766 3753 3737 3718 3705 3693 3682 3672 3661 3649 3638 3628 3625 3618 3614 3608 3604 3598 3593 3588 3584 3580 3577 3572 3562 3549 3535 3522 3498 3478 3469 3461 3449 3441 3437 3434 3435 3446 3451 3456 3465 3469 3472 3469 3462 3459 3454 3446 3434 3420 3413 3402 3392 3382 3376 3370 3365 3362 3359 3352 3345 3339 3337 3335 3333 3330 3324 3321 3317 3313 3310 3308 3306 3303 3300 3296 3289 3286 3284 3283 3284 3287 3289 3289 3288 3285 3284 3283 3281 3279 3279 3278 3273 3273 3266 3268 3269 3271 3269 3275 3278 3282 3280 3276 3276 3274 3273 3268 3268 3269 3269 3267 3267 3265 3262 3254 3249 3246 3243 3239 3235 3229 3224 3221 3218 3215 3214 3209 3202 3188 3185 3184 3192 3194 3197 3207 3211 3216 3221 3225 3230 3229 3225 3206 3197 3178 3163 3148 3130 3108 3084 3066 3052 3037 3001 2976 2956 2940 2928 2917 2901 2889 2873 2854 2854 2847 2840 2842 2845 2850 2858 2860 2867 2866 2859 2854 2856 2851 2844 2848 2854 2863 2870 2878 2884 2889
3353 3350 3348 3347 3347 3346 3345 3343 3340 3339 3341 3345 3348 3353 3355 3356 3359 3363 3367 3371 3375 3380 3384 3388 3391 3394 3399 3402 3405 3409 3413 3418 3422 3427 3428 3429 3430 3432 3431 3429 3426 3423 3422 3422 3420 3420 3421 3422 3423 3422 3420 3417 3413 3409 3406 3406 3404 3403 3402 3400 3399 3398 3396 3395 3395 3394 3395 3397 3401 3404 3408 3412 3417 3419 3422 3426 3427 3429 3429 3429 3425 3423 3423 3427 3433 3439 3443 3445 3443 3442 3443 3446 3450 3457 3465 3474 3484 3494 3505 3517 3529 3540 3553 3562 3572 3585 3595 3609 3624 3637 3652 3668 3685 3698 3708 3722 3738 3750 3761 3772 3790 3803 3817 3831 3844 3857 3870 3878 3889 3913 3931 3945 3948 3935 3920 3868 3829 3813 3795 3775 3762 3751 3743 3732 3718 3710 3706 3703 3700 3699 3696 3693 3691 3689 3689 3690 3693 3699 3705 3709 3709 3708 3704 3702 3701 3699 3697 3696 3697 3701 3706 3711 3716 3721 3732 3751 3775 3796 3819 3835 3848 3858 3863 3869 3874 3879 3885 3889 3893 3893 3892 3891 3888 3887 3883 3876 3866 3849 3839 3828 3815 3778 3759 3729 3691 3673 3658 3643 3629 3617 3602 3589 3576 3564 3554 3549 3544 3544 3546 3547 3544 3543 3545 3545 3542 3540 3544 3547 3551 3553 3554 3552 3546 3539 3525 3515 3501 3481 3462 3454 3445 3435 3421 3411 3408 3410 3410 3411 3410 3409 3406 3403 3401 3396 3393 3390 3389 3389 3390 3389 3390 3390 3389 3391 3395 3399 3408 3415 3426 3437 3449 3460 3470 3480 3494 3505 3515 3526 3538 3553 3566 3579 3594 3612 3633 3650 3671 3688 3713 3735 3754 3768 3789 3811 3829 3849 3866 3884 3904 3926 3948 3967 3982 3996 4011 4027 4041 4054 4062 4070 4080 4090 4103 4113 4121 4128 4135 4139 4144 4149 4155 4160 4166 4170 4173 4175 4176 4176 4177 4172 4173 4177 4179 4180 4185 4188 4193 4198 4202 4204 4205 4206 4206 4208 4209 4210 4209 4208 4205 4205 4206 4205 4203 4195 4184 4166 4156 4151 4146 4141 4135 4131 4128 4123 4112 4105 4099 4093 4090 4071 4053 4035 4022 4009 4003 3995 3982 3972 3962 3953 3948 3938 3928 3919 3910 3908 3903 3900 3895 3891 3886 3881 3874 3869 3862 3859 3858 3854 3852 3847 3842 3841 3838 3835 3832 3829 3824 3817 3809 3802 3791 3777 3764 3744 3728 3715 3705 3693 3684 3674 3666 3651 3640 3631 3624 3618 3612 3605 3596 3589 3582 3578 3574 3573 3568 3558 3549 3530 3508 3494 3481 3463 3453 3438 3430 3426 3424 3426 3431 3431 3434 3440 3446 3450 3453 3449 3446 3441 3436 3427 3417 3408 3400 3390 3381 3374 3369 3365 3364 3364 3362 3357 3352 3347 3343 3339 3336 3330 3325 3321 3318 3313 3309 3307 3307 3307 3304 3298 3294 3293 3293 3298 3304 3310 3311 3311 3311 3307 3303 3302 3300 3300 3301 3299 3293 3287 3289 3292 3289 3289 3292 3295 3300 3302 3305 3307 3309 3301 3294 3296 3296 3293 3288 3289 3285 3281 3274 3268 3267 3264 3260 3252 3244 3241 3238 3238 3241 3232 3224 3219 3213 3212 3212 3215 3221 3226 3233 3241 3242 3242 3243 3246 3238 3228 3223 3191 3178 3164 3146 3120 3098 3080 3062 3051 3036 3008 2977 2958 2945 2935 2922 2913 2903 2896 2885 2875 2867 2864 2860 2860 2867 2873 2881 2889 2893 2889 2881 2877 2872 2869 2869 2877 2887 2897 2905 2912 2916
3349 3347 3344 3342 3342 3343 3344 3342 3340 3340 3340 3345 3349 3351 3352 3353 3355 3359 3362 3366 3370 3374 3378 3381 3385 3390 3395 3401 3406 3411 3414 3419 3422 3426 3427 3427 3428 3427 3424 3422 3417 3415 3412 3411 3410 3410 3410 3410 3410 3409 3405 3403 3402 3402 3401 3399 3397 3394 3391 3390 3390 3390 3390 3389 3390 3389 3394 3397 3399 3400 3403 3406 3409 3410 3413 3416 3419 3420 3420 3421 3420 3419 3420 3421 3424 3428 3431 3432 3432 3435 3437 3442 3447 3452 3459 3469 3481 3495 3507 3521 3534 3547 3559 3570 3582 3602 3616 3629 3642 3654 3672 3687 3702 3716 3728 3739 3748 3760 3771 3784 3801 3818 3836 3851 3862 3873 3884 3895 3913 3931 3946 3951 3950 3946 3921 3871 3825 3820 3798 3781 3763 3753 3745 3737 3725 3717 3710 3704 3700 3695 3691 3687 3685 3684 3686 3687 3690 3694 3698 3701 3699 3698 3698 3697 3695 3693 3692 3693 3695 3696 3698 3702 3708 3713 3721 3735 3753 3774 3796 3816 3829 3838 3843 3850 3858 3867 3875 3880 3885 3889 3892 3895 3893 3890 3887 3879 3865 3854 3844 3834 3813 3796 3785 3772 3740 3690 3677 3657 3643 3631 3617 3601 3595 3582 3571 3558 3546 3545 3545 3547 3547 3545 3545 3545 3544 3544 3545 3545 3548 3549 3549 3545 3538 3526 3517 3509 3500 3484 3463 3452 3445 3436 3426 3416 3412 3411 3411 3411 3410 3410 3408 3405 3403 3398 3394 3391 3390 3389 3389 3390 3391 3390 3389 3392 3395 3400 3410 3419 3430 3443 3455 3467 3477 3484 3494 3505 3516 3527 3541 3557 3570 3582 3593 3611 3628 3650 3671 3687 3711 3731 3749 3766 3785 3810 3831 3849 3870 3890 3908 3927 3948 3965 3978 3993 4008 4022 4034 4045 4053 4062 4072 4085 4095 4106 4117 4126 4136 4142 4144 4148 4152 4154 4160 4165 4165 4167 4165 4165 4168 4167 4165 4165 4167 4170 4173 4175 4180 4185 4186 4189 4191 4192 4195 4197 4198 4200 4201 4202 4199 4196 4191 4186 4182 4172 4159 4149 4142 4138 4132 4127 4123 4120 4115 4108 4100 4094 4092 4084 4075 4057 4046 4028 4017 4009 4001 3989 3977 3968 3955 3946 3941 3935 3929 3920 3916 3914 3911 3908 3901 3897 3889 3884 3879 3874 3870 3868 3865 3861 3857 3852 3851 3850 3847 3843 3841 3833 3828 3824 3818 3813 3798 3785 3774 3762 3748 3735 3720 3703 3694 3689 3678 3664 3649 3632 3625 3618 3608 3599 3589 3579 3573 3570 3568 3565 3559 3550 3539 3516 3497 3485 3476 3457 3442 3435 3425 3420 3417 3418 3422 3424 3426 3426 3426 3426 3428 3429 3426 3423 3421 3415 3409 3402 3396 3389 3383 3378 3374 3372 3371 3371 3368 3363 3358 3352 3345 3341 3340 3334 3329 3326 3323 3318 3314 3313 3313 3313 3310 3303 3302 3308 3315 3319 3321 3321 3322 3325 3325 3325 3324 3320 3318 3315 3317 3318 3321 3323 3326 3329 3330 3326 3325 3327 3332 3338 3336 3336 3336 3333 3331 3334 3332 3326 3318 3307 3301 3297 3290 3286 3283 3282 3278 3270 3260 3257 3257 3259 3256 3244 3239 3240 3236 3237 3237 3238 3247 3254 3264 3270 3269 3267 3262 3256 3249 3234 3216 3196 3175 3152 3131 3115 3093 3080 3061 3047 3028 3012 2988 2967 2952 2937 2929 2917 2916 2915 2907 2897 2892 2884 2878 2876 2882 2892 2905 2909 2913 2904 2903 2906 2898 2900 2898 2900 2910 2921 2927 2936 2940
3344 3343 3342 3340 3339 3339 3341 3341 3339 3341 3344 3348 3349 3351 3351 3354 3357 3360 3363 3366 3371 3375 3380 3384 3389 3395 3401 3405 3409 3414 3418 3421 3423 3426 3426 3426 3424 3421 3416 3410 3407 3403 3399 3397 3397 3396 3396 3396 3397 3397 3395 3395 3395 3397 3395 3394 3391 3388 3385 3382 3383 3383 3382 3383 3385 3388 3392 3393 3396 3397 3399 3401 3402 3402 3402 3404 3406 3408 3410 3412 3412 3415 3417 3419 3422 3424 3426 3428 3430 3432 3436 3441 3444 3451 3457 3468 3481 3495 3508 3522 3537 3550 3562 3576 3594 3612 3626 3641 3657 3672 3687 3701 3716 3732 3747 3758 3767 3775 3785 3800 3818 3837 3856 3867 3878 3887 3900 3910 3927 3945 3952 3957 3954 3945 3920 3887 3846 3820 3812 3795 3781 3765 3754 3743 3732 3722 3715 3709 3701 3696 3693 3690 3688 3686 3685 3685 3686 3689 3691 3692 3692 3693 3694 3694 3693 3692 3691 3691 3691 3693 3693 3697 3701 3707 3715 3726 3742 3760 3778 3794 3807 3817 3827 3838 3847 3855 3864 3872 3876 3881 3889 3893 3892 3890 3889 3881 3869 3857 3853 3845 3829 3803 3789 3779 3766 3760 3751 3712 3679 3654 3637 3621 3611 3601 3591 3571 3558 3549 3543 3547 3545 3545 3546 3544 3544 3544 3546 3547 3547 3547 3545 3539 3534 3523 3515 3506 3495 3481 3468 3454 3445 3437 3429 3423 3420 3419 3419 3417 3415 3412 3409 3407 3403 3396 3393 3391 3390 3388 3389 3390 3391 3393 3394 3395 3397 3403 3413 3423 3433 3447 3459 3469 3479 3485 3491 3501 3512 3528 3544 3558 3569 3578 3589 3607 3629 3653 3674 3690 3717 3740 3755 3770 3787 3813 3833 3855 3876 3892 3907 3922 3936 3954 3973 3989 4001 4016 4029 4037 4046 4056 4068 4082 4090 4098 4108 4119 4129 4135 4138 4141 4144 4148 4152 4154 4154 4152 4152 4150 4150 4151 4149 4149 4152 4157 4162 4164 4170 4174 4173 4175 4176 4181 4184 4184 4185 4189 4189 4190 4185 4180 4170 4161 4150 4142 4137 4135 4129 4121 4115 4110 4107 4104 4097 4090 4083 4078 4076 4075 4066 4053 4043 4030 4019 4006 3996 3985 3972 3962 3953 3947 3939 3932 3929 3925 3924 3922 3918 3913 3907 3896 3891 3886 3884 3879 3880 3881 3873 3872 3863 3862 3863 3861 3857 3851 3843 3837 3835 3832 3826 3818 3804 3797 3787 3776 3765 3751 3737 3719 3708 3698 3685 3670 3650 3631 3598 3592 3583 3574 3569 3566 3564 3561 3558 3553 3547 3537 3521 3495 3489 3482 3474 3461 3444 3430 3422 3416 3415 3415 3417 3418 3421 3424 3423 3420 3418 3417 3416 3415 3412 3409 3406 3401 3397 3393 3387 3382 3379 3379 3378 3377 3373 3368 3363 3357 3351 3346 3343 3334 3327 3324 3324 3324 3325 3325 3325 3325 3325 3326 3331 3335 3338 3337 3336 3336 3337 3339 3339 3342 3342 3341 3341 3338 3338 3343 3350 3357 3360 3361 3362 3365 3364 3363 3360 3361 3356 3352 3354 3354 3356 3357 3359 3354 3344 3331 3326 3322 3316 3309 3305 3301 3296 3291 3287 3286 3283 3283 3269 3257 3261 3256 3253 3267 3262 3260 3270 3280 3287 3291 3292 3289 3270 3263 3245 3216 3199 3186 3160 3136 3126 3115 3098 3078 3051 3040 3025 3009 2993 2974 2958 2946 2936 2929 2926 2928 2925 2918 2915 2906 2897 2899 2903 2913 2925 2930 2931 2929 2927 2930 2928 2925 2925 2927 2934 2945 2956 2964 2967
3342 3342 3341 3340 3339 3340 3340 3338 3338 3339 3343 3346 3348 3348 3351 3355 3360 3364 3366 3370 3373 3379 3385 3390 3393 3399 3401 3404 3408 3415 3420 3424 3425 3428 3427 3425 3420 3413 3403 3398 3396 3393 3387 3386 3385 3384 3384 3387 3390 3389 3389 3389 3392 3393 3393 3390 3387 3384 3381 3378 3378 3377 3379 3381 3384 3387 3389 3390 3391 3390 3392 3395 3397 3397 3397 3398 3400 3402 3403 3406 3409 3412 3414 3415 3415 3418 3420 3423 3425 3427 3431 3435 3439 3447 3456 3467 3482 3496 3509 3523 3539 3554 3568 3585 3601 3617 3629 3649 3669 3683 3697 3711 3726 3743 3758 3770 3779 3791 3804 3821 3839 3853 3866 3879 3892 3904 3916 3932 3948 3962 3967 3968 3962 3942 3919 3885 3855 3844 3822 3815 3800 3781 3763 3750 3740 3731 3722 3712 3701 3694 3693 3692 3689 3687 3685 3684 3684 3687 3688 3690 3692 3694 3696 3695 3694 3693 3696 3695 3694 3693 3693 3693 3696 3702 3711 3722 3734 3749 3760 3771 3781 3791 3799 3809 3822 3835 3848 3857 3863 3871 3882 3889 3891 3892 3891 3888 3880 3869 3863 3858 3848 3827 3803 3791 3788 3780 3773 3757 3725 3694 3669 3654 3636 3616 3608 3593 3577 3564 3555 3554 3552 3549 3545 3543 3543 3543 3543 3545 3542 3542 3538 3535 3527 3517 3508 3498 3489 3478 3469 3456 3445 3435 3432 3428 3426 3424 3419 3416 3414 3411 3407 3404 3401 3394 3392 3389 3388 3388 3390 3390 3391 3393 3396 3397 3398 3405 3415 3427 3439 3451 3460 3472 3478 3483 3489 3501 3514 3529 3546 3559 3568 3576 3587 3606 3633 3655 3675 3701 3733 3754 3775 3790 3807 3825 3843 3865 3881 3896 3908 3922 3935 3953 3968 3984 3999 4010 4020 4030 4039 4047 4056 4071 4082 4089 4098 4106 4115 4122 4126 4129 4131 4133 4134 4135 4138 4141 4136 4131 4131 4131 4131 4135 4138 4143 4149 4153 4155 4158 4161 4165 4170 4172 4173 4172 4170 4169 4169 4166 4163 4160 4147 4134 4129 4127 4125 4120 4116 4107 4100 4094 4090 4085 4080 4076 4071 4067 4066 4062 4054 4046 4038 4028 4018 4008 4000 3990 3982 3971 3962 3954 3942 3936 3933 3935 3933 3930 3923 3916 3910 3902 3897 3894 3887 3887 3887 3888 3883 3880 3879 3875 3872 3870 3865 3860 3855 3850 3848 3840 3835 3827 3815 3800 3790 3783 3776 3766 3753 3743 3716 3706 3681 3650 3631 3593 3592 3574 3566 3563 3559 3558 3557 3554 3550 3545 3537 3526 3512 3494 3486 3482 3470 3453 3443 3426 3421 3421 3419 3417 3417 3417 3418 3419 3420 3420 3417 3416 3414 3413 3411 3410 3407 3404 3398 3394 3390 3386 3383 3382 3381 3378 3373 3368 3366 3362 3357 3352 3342 3335 3332 3331 3333 3336 3340 3346 3347 3348 3352 3354 3352 3350 3348 3348 3350 3351 3351 3350 3352 3354 3355 3357 3357 3359 3359 3362 3369 3378 3381 3386 3384 3383 3388 3388 3384 3380 3381 3378 3376 3374 3372 3372 3376 3374 3368 3357 3347 3342 3338 3333 3325 3315 3312 3309 3310 3311 3310 3304 3293 3283 3286 3285 3286 3289 3285 3281 3286 3299 3305 3308 3307 3299 3282 3250 3231 3210 3198 3180 3151 3134 3126 3113 3096 3075 3056 3039 3023 3008 2996 2984 2970 2957 2952 2946 2944 2942 2939 2930 2930 2929 2923 2920 2929 2942 2951 2950 2943 2940 2935 2938 2950 2952 2949 2952 2957 2970 2980 2988 2993
3340 3341 3342 3341 3341 3339 3339 3338 3339 3339 3339 3342 3346 3348 3352 3355 3358 3361 3363 3368 3374 3381 3387 3391 3394 3399 3405 3408 3411 3413 3419 3422 3427 3426 3423 3417 3406 3396 3387 3384 3382 3380 3377 3377 3378 3378 3380 3383 3384 3384 3384 3385 3386 3388 3387 3385 3383 3380 3377 3374 3375 3377 3379 3380 3381 3383 3383 3384 3385 3385 3386 3388 3392 3394 3395 3397 3397 3398 3400 3401 3405 3409 3413 3415 3416 3417 3418 3419 3422 3425 3427 3431 3439 3449 3458 3470 3485 3503 3522 3536 3551 3567 3582 3601 3614 3628 3645 3666 3683 3697 3711 3726 3742 3760 3772 3784 3796 3811 3826 3843 3858 3873 3884 3897 3907 3917 3931 3950 3964 3971 3973 3970 3961 3940 3917 3895 3878 3861 3842 3826 3812 3796 3774 3757 3746 3738 3728 3717 3706 3698 3695 3693 3691 3687 3685 3687 3686 3688 3689 3691 3693 3696 3697 3699 3699 3698 3698 3697 3697 3696 3695 3696 3698 3703 3711 3719 3727 3736 3744 3753 3763 3770 3778 3784 3794 3804 3816 3832 3842 3854 3869 3880 3886 3887 3888 3889 3887 3883 3869 3864 3863 3848 3829 3807 3798 3787 3779 3766 3744 3730 3716 3695 3677 3645 3629 3616 3603 3584 3571 3566 3563 3559 3554 3550 3547 3543 3542 3542 3540 3537 3534 3530 3521 3511 3502 3491 3477 3469 3461 3452 3441 3432 3427 3425 3421 3417 3414 3412 3410 3408 3405 3403 3398 3394 3390 3386 3385 3387 3388 3390 3392 3394 3397 3399 3400 3408 3419 3431 3445 3452 3461 3471 3477 3485 3493 3503 3517 3531 3544 3558 3570 3582 3591 3612 3637 3664 3687 3725 3751 3777 3795 3808 3821 3838 3854 3870 3885 3897 3910 3923 3937 3952 3966 3980 3992 4002 4010 4019 4029 4037 4047 4057 4072 4081 4088 4090 4098 4105 4113 4119 4121 4120 4120 4118 4118 4115 4113 4112 4109 4108 4115 4122 4127 4132 4134 4136 4139 4144 4151 4157 4159 4160 4161 4160 4157 4155 4153 4149 4145 4139 4124 4120 4118 4118 4112 4103 4094 4089 4085 4078 4073 4070 4067 4063 4062 4059 4055 4049 4043 4038 4035 4031 4026 4019 4011 4003 3992 3983 3975 3965 3956 3950 3947 3944 3942 3940 3934 3929 3918 3914 3907 3900 3898 3897 3896 3894 3892 3893 3892 3889 3883 3879 3876 3874 3869 3865 3861 3854 3843 3832 3823 3814 3804 3797 3791 3784 3777 3751 3726 3701 3681 3667 3634 3590 3572 3563 3557 3554 3550 3550 3549 3545 3539 3532 3526 3512 3503 3489 3478 3467 3454 3448 3438 3432 3425 3422 3419 3417 3415 3415 3416 3416 3416 3415 3414 3413 3412 3411 3411 3412 3411 3406 3401 3396 3392 3388 3384 3381 3377 3373 3369 3368 3368 3369 3367 3360 3355 3349 3347 3347 3347 3351 3359 3368 3374 3374 3375 3372 3368 3366 3367 3368 3369 3370 3368 3365 3365 3368 3371 3370 3373 3374 3379 3385 3387 3391 3397 3399 3398 3398 3396 3396 3394 3393 3395 3397 3396 3393 3393 3392 3395 3395 3395 3391 3379 3367 3361 3360 3352 3339 3335 3335 3338 3336 3333 3333 3321 3315 3309 3309 3312 3312 3305 3303 3308 3317 3319 3317 3312 3303 3278 3256 3238 3214 3196 3182 3158 3141 3128 3116 3096 3076 3059 3044 3032 3017 3007 2998 2984 2973 2967 2962 2962 2955 2951 2944 2942 2940 2938 2941 2952 2964 2971 2974 2964 2954 2952 2963 2976 2974 2972 2971 2974 2982 2995 3003 3007
3339 3342 3342 3340 3337 3338 3337 3338 3337 3338 3338 3342 3345 3348 3351 3355 3357 3359 3363 3369 3375 3381 3386 3390 3396 3400 3405 3408 3411 3413 3416 3416 3414 3413 3407 3398 3392 3384 3377 3374 3371 3369 3368 3368 3370 3372 3374 3377 3378 3378 3377 3380 3382 3383 3383 3381 3378 3376 3375 3374 3375 3378 3379 3378 3379 3379 3380 3384 3385 3387 3388 3388 3390 3392 3394 3395 3396 3397 3398 3400 3402 3406 3409 3411 3412 3413 3415 3418 3423 3429 3432 3440 3449 3458 3468 3478 3495 3521 3545 3563 3578 3594 3611 3625 3640 3652 3670 3684 3699 3712 3726 3745 3763 3776 3792 3806 3818 3829 3840 3855 3869 3884 3896 3910 3921 3931 3942 3958 3971 3976 3976 3971 3962 3938 3910 3896 3883 3868 3856 3845 3830 3809 3787 3772 3758 3748 3739 3730 3719 3710 3701 3696 3691 3688 3687 3687 3687 3689 3691 3694 3698 3701 3701 3700 3698 3696 3695 3696 3697 3696 3696 3697 3699 3705 3711 3717 3722 3727 3729 3733 3737 3741 3753 3765 3774 3780 3790 3804 3821 3836 3847 3857 3863 3868 3870 3873 3876 3875 3871 3868 3857 3849 3846 3828 3820 3803 3787 3769 3759 3751 3746 3729 3708 3682 3662 3646 3626 3606 3591 3580 3575 3571 3566 3558 3550 3545 3542 3540 3538 3534 3531 3525 3514 3501 3492 3485 3475 3464 3455 3447 3438 3431 3427 3424 3419 3413 3409 3409 3407 3405 3403 3399 3396 3394 3390 3387 3387 3388 3390 3391 3390 3392 3394 3397 3404 3414 3424 3435 3447 3454 3464 3470 3477 3486 3494 3506 3520 3536 3550 3564 3576 3589 3599 3627 3653 3679 3705 3742 3772 3794 3813 3823 3833 3846 3862 3875 3886 3899 3911 3922 3934 3949 3963 3975 3984 3992 4000 4008 4018 4028 4036 4045 4057 4065 4070 4075 4081 4087 4094 4100 4102 4103 4103 4102 4098 4093 4090 4088 4091 4095 4100 4106 4115 4120 4125 4127 4132 4136 4138 4141 4142 4143 4144 4144 4142 4137 4137 4131 4125 4119 4111 4105 4102 4099 4095 4087 4078 4074 4069 4068 4063 4059 4058 4055 4052 4048 4046 4043 4041 4039 4039 4037 4033 4030 4023 4015 4004 3994 3986 3980 3974 3968 3964 3959 3953 3951 3947 3944 3929 3921 3920 3915 3912 3911 3907 3906 3905 3903 3901 3899 3894 3889 3889 3887 3885 3882 3876 3870 3862 3852 3843 3834 3821 3809 3800 3791 3781 3770 3723 3686 3678 3657 3635 3601 3575 3568 3556 3549 3543 3540 3537 3533 3525 3518 3511 3501 3484 3471 3462 3458 3452 3446 3440 3433 3428 3424 3423 3420 3416 3415 3415 3414 3414 3414 3414 3414 3413 3413 3415 3416 3412 3407 3402 3396 3391 3387 3382 3377 3371 3369 3370 3371 3374 3377 3376 3371 3370 3368 3368 3369 3371 3375 3382 3387 3391 3391 3390 3392 3395 3397 3399 3394 3390 3385 3381 3378 3376 3378 3382 3384 3387 3392 3395 3399 3404 3408 3411 3415 3413 3410 3410 3410 3411 3408 3410 3409 3409 3409 3410 3412 3410 3407 3406 3406 3405 3396 3388 3382 3376 3365 3359 3358 3361 3365 3362 3356 3347 3331 3322 3327 3329 3330 3328 3327 3330 3334 3335 3331 3326 3302 3277 3265 3245 3230 3213 3188 3160 3141 3132 3119 3103 3088 3071 3058 3045 3033 3023 3012 3000 2992 2986 2981 2977 2969 2960 2953 2950 2946 2950 2953 2965 2975 2980 2987 2985 2979 2976 2982 2992 2999 2996 2991 2990 2994 3009 3020 3023
3338 3339 3339 3335 3334 3334 3334 3335 3337 3338 3340 3343 3345 3348 3351 3354 3356 3360 3365 3371 3374 3379 3385 3390 3394 3399 3402 3407 3410 3413 3413 3413 3407 3396 3388 3381 3378 3373 3366 3362 3361 3361 3360 3360 3362 3365 3367 3369 3371 3373 3372 3375 3379 3379 3378 3374 3372 3371 3371 3374 3377 3378 3377 3377 3378 3379 3382 3384 3386 3387 3390 3392 3393 3394 3396 3397 3398 3399 3400 3401 3404 3406 3408 3411 3414 3417 3422 3428 3434 3442 3449 3456 3465 3471 3482 3497 3519 3545 3568 3588 3602 3614 3630 3646 3660 3680 3696 3708 3720 3738 3755 3769 3784 3795 3811 3825 3833 3840 3851 3864 3881 3893 3906 3919 3929 3938 3948 3959 3969 3975 3974 3969 3964 3946 3918 3904 3894 3883 3875 3866 3848 3830 3801 3782 3768 3760 3750 3741 3730 3721 3712 3704 3698 3694 3690 3691 3691 3692 3696 3698 3702 3704 3703 3701 3700 3699 3698 3699 3700 3701 3700 3700 3703 3709 3711 3713 3713 3714 3715 3717 3717 3716 3723 3734 3749 3760 3773 3786 3797 3814 3829 3835 3842 3848 3852 3855 3859 3859 3858 3854 3853 3848 3842 3839 3828 3817 3799 3781 3774 3769 3766 3755 3741 3715 3702 3677 3651 3632 3613 3597 3586 3578 3571 3563 3555 3549 3544 3539 3535 3530 3523 3515 3505 3494 3487 3481 3470 3460 3452 3442 3435 3429 3425 3419 3413 3409 3408 3409 3407 3405 3403 3400 3398 3397 3394 3392 3389 3387 3389 3391 3390 3391 3393 3398 3410 3419 3428 3436 3445 3454 3463 3471 3480 3489 3497 3508 3523 3539 3556 3572 3585 3598 3612 3634 3672 3696 3726 3757 3783 3800 3814 3828 3839 3850 3863 3875 3886 3899 3913 3925 3935 3945 3958 3971 3980 3989 3996 3999 4005 4012 4020 4027 4038 4046 4049 4056 4063 4067 4073 4080 4084 4086 4087 4082 4080 4076 4078 4079 4080 4086 4089 4094 4099 4104 4110 4115 4123 4127 4125 4122 4121 4122 4126 4129 4127 4124 4118 4112 4100 4093 4089 4087 4083 4080 4076 4071 4067 4063 4062 4058 4054 4052 4052 4047 4044 4041 4039 4041 4041 4042 4042 4040 4036 4033 4029 4021 4013 4004 3999 3995 3993 3989 3984 3975 3969 3965 3961 3949 3935 3924 3919 3907 3912 3910 3906 3905 3910 3907 3905 3904 3900 3898 3896 3897 3895 3890 3886 3879 3873 3864 3854 3841 3828 3812 3802 3792 3785 3775 3705 3678 3659 3648 3639 3583 3577 3569 3553 3543 3537 3531 3525 3519 3513 3504 3495 3483 3474 3468 3464 3460 3454 3448 3441 3434 3428 3423 3422 3419 3416 3415 3412 3411 3412 3411 3411 3411 3411 3413 3414 3414 3411 3407 3402 3396 3391 3388 3384 3381 3378 3376 3379 3379 3382 3385 3384 3384 3383 3385 3387 3389 3391 3395 3399 3403 3408 3410 3413 3418 3422 3426 3424 3418 3412 3405 3402 3399 3400 3399 3399 3398 3400 3402 3406 3411 3415 3420 3425 3427 3426 3426 3427 3430 3432 3434 3436 3437 3437 3435 3432 3431 3426 3424 3424 3425 3426 3423 3417 3408 3400 3389 3385 3384 3386 3387 3382 3374 3359 3350 3345 3345 3347 3350 3352 3353 3354 3355 3352 3343 3337 3329 3306 3279 3265 3241 3224 3195 3171 3156 3142 3127 3114 3101 3085 3071 3053 3045 3036 3029 3017 3008 3005 3003 2996 2988 2978 2967 2960 2961 2966 2973 2983 2998 3009 3010 3007 3004 3001 3004 3012 3014 3014 3008 3009 3018 3030 3040 3047
3338 3337 3335 3331 3329 3329 3331 3333 3337 3340 3342 3342 3343 3346 3349 3353 3356 3361 3367 3371 3374 3378 3384 3391 3394 3397 3399 3404 3408 3412 3413 3408 3398 3384 3380 3374 3367 3361 3356 3354 3352 3352 3354 3356 3356 3357 3355 3357 3361 3365 3368 3370 3374 3376 3374 3373 3371 3370 3371 3371 3372 3374 3374 3375 3377 3380 3383 3386 3388 3388 3388 3391 3394 3396 3399 3400 3400 3401 3401 3404 3406 3410 3414 3417 3422 3428 3435 3441 3449 3459 3468 3475 3486 3493 3504 3519 3541 3564 3584 3604 3620 3636 3652 3670 3685 3704 3723 3736 3747 3759 3770 3782 3797 3811 3821 3831 3839 3848 3857 3869 3882 3896 3906 3917 3928 3938 3946 3954 3963 3970 3972 3968 3961 3955 3941 3932 3919 3906 3894 3884 3865 3849 3815 3800 3786 3773 3763 3758 3746 3733 3723 3718 3712 3707 3702 3699 3697 3698 3701 3706 3709 3708 3706 3703 3699 3695 3695 3694 3695 3698 3699 3699 3702 3705 3707 3707 3704 3704 3704 3705 3703 3703 3708 3716 3724 3734 3754 3767 3780 3790 3802 3810 3815 3822 3830 3837 3841 3842 3844 3843 3841 3839 3838 3834 3828 3816 3799 3793 3787 3785 3786 3778 3765 3747 3730 3707 3684 3658 3633 3614 3591 3579 3568 3561 3555 3549 3542 3538 3533 3529 3520 3511 3501 3490 3482 3474 3462 3453 3445 3438 3433 3428 3424 3418 3413 3410 3410 3409 3407 3405 3403 3402 3402 3400 3398 3394 3389 3384 3386 3389 3390 3393 3396 3403 3413 3424 3433 3440 3448 3455 3465 3474 3485 3492 3500 3512 3527 3543 3558 3574 3590 3604 3621 3649 3686 3712 3737 3755 3777 3790 3803 3815 3828 3842 3855 3868 3881 3896 3910 3922 3930 3939 3947 3959 3967 3977 3984 3989 3993 3998 4004 4010 4019 4029 4036 4041 4047 4052 4059 4063 4065 4065 4061 4059 4060 4060 4062 4064 4061 4063 4067 4075 4081 4088 4095 4101 4107 4109 4108 4107 4106 4108 4108 4106 4103 4100 4093 4087 4081 4076 4073 4070 4068 4064 4060 4059 4055 4051 4050 4047 4042 4042 4039 4037 4035 4035 4036 4039 4045 4046 4047 4045 4041 4039 4035 4031 4023 4019 4014 4012 4001 3998 3989 3982 3971 3970 3962 3943 3916 3902 3929 3916 3896 3889 3896 3890 3891 3899 3892 3893 3894 3895 3902 3898 3903 3900 3896 3879 3873 3868 3857 3839 3828 3808 3801 3779 3769 3723 3688 3666 3653 3622 3593 3584 3578 3567 3547 3537 3529 3524 3516 3510 3503 3494 3486 3479 3472 3467 3464 3458 3451 3445 3440 3436 3432 3429 3427 3425 3423 3420 3416 3412 3411 3410 3410 3410 3411 3413 3412 3411 3409 3407 3404 3400 3396 3393 3394 3392 3389 3390 3389 3389 3391 3394 3397 3395 3397 3402 3410 3413 3411 3412 3414 3418 3423 3427 3432 3437 3442 3444 3443 3440 3430 3426 3421 3419 3415 3420 3420 3419 3415 3415 3415 3421 3426 3431 3434 3436 3438 3439 3441 3445 3449 3452 3455 3454 3453 3449 3447 3448 3448 3450 3450 3453 3461 3464 3459 3448 3434 3421 3412 3409 3410 3411 3405 3396 3382 3375 3375 3371 3370 3374 3379 3382 3384 3383 3377 3361 3348 3341 3317 3284 3275 3253 3232 3205 3189 3176 3160 3143 3127 3113 3094 3075 3065 3058 3048 3042 3036 3034 3036 3031 3022 3011 3000 2989 2982 2978 2991 3013 3025 3041 3036 3036 3033 3029 3032 3033 3036 3037 3036 3031 3030 3033 3047 3063 3070
3335 3333 3332 3330 3329 3329 3331 3333 3337 3339 3341 3344 3343 3344 3347 3352 3357 3362 3367 3370 3372 3377 3382 3389 3393 3396 3399 3401 3405 3408 3407 3400 3393 3382 3372 3363 3354 3348 3347 3345 3344 3346 3347 3349 3350 3352 3353 3354 3356 3359 3362 3366 3368 3369 3369 3368 3368 3369 3369 3370 3370 3370 3372 3374 3378 3383 3385 3389 3392 3391 3391 3392 3394 3397 3400 3400 3401 3401 3401 3404 3410 3416 3423 3428 3435 3442 3449 3456 3464 3473 3483 3497 3508 3517 3523 3541 3564 3587 3603 3621 3639 3657 3675 3693 3708 3725 3739 3749 3757 3765 3775 3788 3799 3811 3823 3833 3840 3849 3859 3869 3880 3891 3902 3911 3923 3934 3942 3952 3959 3965 3969 3970 3969 3963 3956 3947 3934 3921 3911 3902 3887 3857 3841 3821 3808 3798 3788 3781 3772 3759 3752 3745 3738 3734 3732 3729 3723 3718 3718 3720 3718 3715 3711 3703 3694 3687 3685 3684 3683 3685 3687 3690 3690 3691 3688 3681 3681 3681 3684 3688 3692 3694 3696 3699 3707 3715 3734 3753 3763 3773 3783 3789 3793 3797 3802 3809 3815 3819 3822 3824 3824 3825 3824 3825 3821 3814 3807 3803 3798 3795 3790 3784 3774 3760 3744 3729 3712 3690 3648 3631 3603 3583 3566 3559 3554 3549 3542 3536 3530 3524 3516 3505 3493 3484 3476 3467 3457 3449 3443 3437 3432 3427 3421 3417 3413 3412 3410 3408 3405 3403 3402 3402 3402 3401 3399 3397 3390 3386 3386 3388 3392 3397 3404 3411 3420 3432 3441 3449 3453 3461 3469 3478 3483 3490 3503 3516 3530 3545 3559 3577 3593 3610 3633 3661 3689 3713 3736 3748 3762 3777 3790 3804 3819 3837 3851 3863 3877 3887 3898 3908 3915 3923 3932 3940 3947 3955 3964 3971 3978 3983 3988 3994 4000 4007 4014 4018 4020 4024 4029 4033 4036 4038 4039 4040 4042 4043 4045 4046 4049 4051 4053 4056 4064 4074 4080 4085 4091 4095 4094 4095 4094 4093 4093 4092 4087 4082 4075 4071 4068 4066 4064 4060 4059 4055 4053 4050 4047 4041 4037 4036 4035 4033 4033 4030 4028 4030 4034 4039 4045 4048 4050 4052 4050 4049 4039 4035 4024 4012 4011 4011 4003 4002 3993 3988 3974 3967 3955 3923 3944 3927 3910 3935 3879 3872 3869 3876 3868 3873 3877 3880 3881 3894 3889 3898 3897 3893 3884 3876 3864 3853 3838 3834 3804 3803 3781 3749 3722 3694 3676 3662 3650 3610 3593 3587 3581 3568 3555 3543 3536 3528 3520 3514 3506 3497 3489 3484 3478 3471 3465 3458 3450 3444 3441 3439 3439 3436 3434 3432 3429 3425 3421 3415 3414 3415 3413 3412 3414 3415 3413 3412 3410 3408 3406 3403 3402 3403 3404 3403 3402 3403 3403 3404 3406 3409 3411 3412 3414 3422 3431 3433 3435 3439 3443 3445 3446 3447 3452 3460 3467 3469 3467 3459 3454 3450 3443 3438 3438 3438 3437 3434 3431 3431 3432 3433 3434 3440 3446 3450 3457 3461 3463 3464 3466 3467 3471 3473 3474 3473 3469 3470 3476 3483 3486 3492 3495 3490 3485 3481 3463 3441 3431 3431 3434 3434 3430 3422 3412 3407 3404 3399 3397 3400 3403 3406 3407 3403 3389 3377 3362 3355 3340 3308 3274 3261 3241 3223 3210 3192 3178 3160 3145 3131 3109 3088 3080 3075 3068 3063 3059 3061 3065 3059 3048 3035 3021 3012 3005 3009 3026 3040 3055 3068 3067 3060 3052 3051 3049 3058 3065 3069 3070 3067 3059 3061 3068 3083 3095
3332 3331 3330 3329 3328 3327 3329 3330 3333 3336 3338 3343 3344 3347 3350 3353 3357 3360 3364 3368 3372 3377 3382 3387 3391 3395 3401 3404 3405 3404 3402 3397 3387 3377 3363 3353 3344 3339 3340 3340 3340 3341 3343 3345 3346 3349 3351 3354 3358 3359 3362 3363 3364 3364 3365 3365 3364 3364 3365 3366 3367 3368 3372 3377 3381 3384 3387 3391 3394 3395 3396 3395 3398 3399 3399 3400 3401 3404 3408 3414 3422 3429 3436 3445 3451 3455 3460 3469 3479 3490 3504 3516 3526 3534 3549 3568 3587 3603 3623 3639 3658 3678 3692 3707 3720 3732 3742 3753 3759 3765 3774 3784 3795 3803 3811 3825 3834 3843 3851 3860 3870 3881 3895 3906 3917 3927 3939 3948 3956 3963 3973 3979 3982 3981 3969 3963 3952 3935 3921 3917 3895 3872 3857 3842 3833 3823 3814 3801 3795 3786 3781 3772 3764 3758 3754 3749 3743 3739 3734 3725 3720 3714 3706 3697 3682 3673 3670 3669 3672 3673 3674 3675 3675 3671 3669 3667 3667 3667 3666 3666 3669 3676 3676 3678 3685 3694 3702 3720 3735 3750 3760 3767 3773 3780 3783 3789 3796 3803 3807 3809 3810 3811 3810 3810 3811 3810 3809 3807 3804 3800 3795 3788 3778 3768 3755 3743 3732 3706 3660 3628 3613 3595 3580 3566 3556 3549 3540 3532 3524 3517 3511 3502 3491 3481 3474 3465 3456 3449 3442 3436 3431 3426 3421 3418 3415 3411 3408 3405 3403 3401 3399 3399 3398 3397 3396 3395 3392 3390 3389 3391 3395 3400 3408 3416 3426 3436 3445 3453 3460 3467 3474 3481 3485 3495 3508 3517 3530 3545 3560 3578 3597 3617 3640 3665 3689 3708 3725 3741 3756 3772 3785 3799 3813 3827 3842 3856 3869 3878 3886 3894 3902 3909 3915 3926 3933 3938 3944 3952 3962 3970 3978 3983 3987 3988 3987 3987 3989 3994 4003 4008 4014 4019 4025 4029 4028 4026 4026 4026 4027 4032 4038 4041 4047 4054 4064 4070 4073 4076 4079 4080 4078 4078 4078 4075 4072 4068 4063 4059 4056 4057 4054 4052 4051 4049 4048 4042 4038 4034 4028 4028 4027 4027 4027 4025 4027 4030 4035 4040 4044 4049 4050 4052 4049 4046 4033 4044 4037 4037 3997 3991 3996 3988 3986 3946 3946 3951 3945 3943 3924 3905 3935 3929 3920 3803 3797 3814 3821 3836 3842 3843 3855 3876 3884 3889 3885 3875 3867 3865 3852 3841 3837 3805 3801 3782 3753 3736 3719 3698 3681 3664 3639 3617 3605 3594 3582 3566 3556 3545 3537 3529 3522 3515 3506 3495 3488 3484 3478 3469 3462 3455 3449 3442 3439 3437 3436 3435 3434 3432 3430 3428 3425 3420 3416 3413 3410 3410 3413 3416 3417 3416 3414 3410 3407 3407 3411 3414 3417 3415 3420 3423 3424 3424 3425 3428 3429 3430 3432 3443 3450 3455 3459 3465 3468 3471 3472 3471 3477 3482 3489 3493 3487 3481 3477 3469 3465 3460 3456 3455 3451 3447 3444 3442 3440 3444 3447 3451 3458 3468 3475 3481 3486 3487 3487 3490 3492 3493 3493 3491 3490 3492 3498 3503 3505 3506 3508 3511 3507 3501 3484 3464 3457 3454 3455 3454 3450 3443 3436 3435 3429 3424 3421 3423 3425 3427 3423 3413 3398 3387 3374 3364 3351 3321 3292 3264 3249 3236 3224 3201 3187 3176 3162 3147 3131 3110 3102 3096 3093 3087 3085 3087 3089 3082 3069 3055 3040 3032 3028 3035 3047 3064 3076 3084 3091 3087 3072 3066 3067 3081 3095 3097 3095 3090 3090 3093 3100 3118 3126
3329 3329 3328 3326 3325 3327 3328 3330 3330 3333 3336 3342 3345 3348 3353 3353 3355 3361 3365 3368 3372 3377 3382 3387 3391 3396 3401 3405 3402 3398 3394 3389 3381 3366 3354 3344 3339 3335 3335 3336 3337 3339 3340 3343 3345 3350 3353 3355 3357 3358 3359 3359 3360 3361 3362 3362 3361 3360 3362 3364 3367 3373 3378 3381 3382 3384 3388 3393 3397 3401 3403 3407 3410 3410 3410 3412 3413 3417 3423 3431 3438 3443 3449 3456 3458 3463 3470 3479 3491 3504 3519 3530 3542 3562 3581 3597 3615 3632 3650 3666 3683 3696 3706 3717 3723 3731 3740 3749 3754 3759 3763 3769 3778 3790 3802 3812 3821 3830 3840 3851 3862 3876 3888 3898 3911 3924 3935 3947 3956 3964 3974 3985 3991 3990 3984 3965 3953 3946 3935 3922 3909 3890 3874 3863 3850 3841 3834 3825 3821 3819 3810 3803 3789 3773 3764 3758 3754 3747 3738 3730 3719 3710 3700 3686 3673 3666 3663 3660 3660 3662 3664 3665 3664 3660 3658 3656 3653 3654 3656 3656 3657 3661 3663 3663 3666 3674 3683 3695 3708 3722 3731 3738 3747 3755 3762 3768 3775 3783 3789 3794 3795 3795 3796 3798 3802 3804 3806 3805 3805 3802 3799 3794 3786 3779 3765 3749 3735 3703 3678 3641 3619 3599 3589 3571 3561 3549 3540 3532 3524 3517 3511 3502 3494 3484 3477 3469 3456 3448 3441 3435 3429 3426 3421 3418 3415 3411 3407 3403 3400 3396 3394 3392 3392 3392 3391 3391 3390 3390 3390 3392 3400 3404 3412 3419 3429 3438 3447 3457 3464 3472 3477 3480 3488 3499 3511 3519 3533 3549 3569 3587 3604 3620 3639 3667 3687 3705 3726 3746 3762 3773 3785 3797 3808 3819 3832 3845 3855 3867 3876 3884 3888 3894 3900 3909 3917 3924 3931 3941 3949 3957 3964 3968 3969 3969 3965 3964 3966 3974 3979 3988 3995 3996 3994 3997 4003 4006 4008 4009 4012 4016 4023 4029 4032 4036 4040 4045 4052 4055 4059 4062 4063 4061 4059 4056 4054 4053 4052 4050 4047 4046 4048 4046 4046 4043 4040 4035 4029 4027 4026 4021 4019 4019 4021 4022 4024 4028 4032 4037 4042 4044 4045 4044 4043 4043 4053 4047 4039 4045 4026 3974 3959 3955 3947 3940 3932 3920 3918 3904 3886 3917 3916 3906 3848 3794 3756 3765 3804 3806 3817 3818 3824 3842 3863 3860 3859 3851 3846 3837 3824 3818 3815 3802 3777 3750 3739 3724 3710 3684 3667 3651 3641 3628 3614 3604 3589 3569 3557 3549 3542 3535 3527 3518 3505 3493 3486 3479 3472 3462 3456 3452 3449 3446 3443 3440 3439 3437 3435 3432 3431 3428 3427 3425 3422 3416 3413 3414 3418 3422 3424 3423 3421 3417 3418 3425 3431 3439 3443 3442 3443 3446 3446 3450 3448 3447 3445 3445 3452 3464 3475 3479 3481 3483 3486 3488 3488 3493 3498 3500 3504 3506 3505 3504 3498 3492 3483 3472 3465 3465 3463 3461 3459 3454 3453 3453 3457 3459 3465 3475 3486 3492 3499 3503 3505 3508 3510 3507 3506 3510 3511 3513 3519 3522 3523 3522 3523 3524 3522 3514 3497 3484 3480 3474 3475 3477 3479 3477 3473 3465 3457 3453 3448 3447 3446 3442 3435 3422 3408 3401 3393 3378 3361 3340 3315 3282 3263 3253 3243 3223 3205 3191 3181 3167 3151 3134 3120 3111 3110 3106 3109 3110 3109 3101 3090 3072 3053 3043 3043 3055 3067 3085 3097 3105 3116 3112 3100 3093 3094 3116 3123 3125 3121 3116 3118 3119 3128 3142 3151
3327 3327 3326 3323 3321 3322 3325 3326 3330 3334 3338 3344 3347 3351 3356 3358 3361 3363 3366 3371 3375 3381 3383 3388 3394 3398 3401 3400 3397 3390 3383 3376 3370 3363 3350 3341 3337 3335 3336 3338 3341 3343 3343 3345 3348 3351 3351 3353 3355 3356 3355 3355 3356 3358 3362 3362 3361 3362 3364 3369 3375 3382 3385 3387 3388 3391 3397 3402 3407 3412 3415 3418 3421 3424 3427 3430 3434 3439 3442 3446 3451 3457 3464 3470 3474 3481 3488 3505 3519 3533 3546 3558 3571 3595 3608 3622 3635 3649 3672 3687 3697 3704 3710 3716 3721 3725 3729 3737 3742 3747 3752 3759 3767 3777 3788 3800 3811 3821 3832 3843 3855 3868 3880 3892 3904 3919 3930 3943 3951 3962 3974 3985 3991 3990 3983 3970 3957 3949 3941 3929 3919 3910 3891 3872 3859 3853 3848 3843 3839 3842 3836 3829 3808 3783 3778 3769 3760 3749 3737 3726 3712 3701 3692 3678 3668 3661 3657 3655 3655 3655 3656 3654 3651 3645 3640 3636 3635 3638 3640 3644 3649 3653 3651 3650 3651 3657 3665 3675 3684 3694 3703 3710 3719 3731 3738 3745 3754 3761 3768 3772 3778 3782 3787 3792 3796 3799 3800 3800 3799 3797 3795 3793 3787 3780 3767 3752 3738 3707 3679 3647 3624 3599 3597 3578 3561 3547 3538 3531 3525 3516 3509 3503 3496 3487 3478 3469 3456 3445 3440 3433 3428 3426 3423 3419 3417 3414 3408 3401 3396 3393 3390 3389 3389 3388 3388 3388 3389 3389 3389 3393 3399 3408 3418 3426 3434 3444 3451 3461 3470 3475 3480 3485 3492 3501 3510 3524 3538 3556 3577 3593 3608 3624 3647 3675 3696 3711 3731 3751 3766 3775 3783 3795 3806 3815 3824 3833 3842 3851 3862 3871 3877 3881 3887 3893 3900 3908 3917 3924 3929 3934 3939 3939 3938 3937 3934 3935 3936 3941 3954 3959 3965 3967 3969 3972 3980 3986 3991 3995 3999 4005 4011 4015 4018 4020 4023 4026 4031 4037 4040 4043 4045 4046 4045 4044 4046 4045 4044 4044 4041 4040 4040 4039 4040 4035 4031 4028 4023 4023 4018 4014 4012 4012 4016 4019 4023 4025 4027 4032 4037 4040 4042 4036 4036 4050 4054 4054 4049 4028 4003 3942 3939 3940 3936 3936 3915 3901 3905 3875 3870 3890 3889 3895 3800 3734 3739 3741 3760 3783 3797 3805 3819 3822 3826 3835 3832 3830 3826 3820 3816 3809 3797 3793 3779 3755 3741 3724 3713 3685 3665 3651 3638 3624 3615 3604 3583 3568 3556 3547 3543 3533 3525 3515 3503 3489 3481 3475 3468 3460 3455 3451 3449 3446 3442 3440 3438 3435 3435 3434 3435 3436 3439 3440 3440 3438 3438 3438 3438 3439 3440 3440 3438 3441 3447 3460 3468 3472 3472 3474 3473 3476 3478 3479 3478 3475 3466 3466 3475 3485 3491 3495 3498 3501 3504 3508 3513 3516 3518 3521 3522 3522 3519 3515 3510 3503 3491 3482 3477 3477 3472 3470 3470 3467 3467 3465 3474 3476 3480 3488 3498 3506 3513 3520 3524 3525 3524 3522 3524 3527 3532 3533 3539 3547 3549 3549 3544 3538 3533 3524 3512 3510 3509 3505 3499 3497 3497 3496 3497 3493 3487 3486 3484 3477 3472 3466 3455 3439 3426 3418 3407 3389 3378 3363 3337 3303 3285 3275 3258 3234 3217 3204 3196 3186 3170 3152 3138 3129 3125 3124 3123 3124 3122 3114 3102 3086 3068 3059 3062 3070 3088 3104 3118 3131 3146 3141 3132 3122 3121 3132 3143 3146 3146 3140 3145 3143 3155 3167 3174
3325 3325 3323 3321 3322 3324 3327 3329 3332 3335 3340 3345 3349 3352 3358 3362 3365 3368 3371 3375 3380 3383 3386 3390 3392 3395 3394 3390 3386 3380 3372 3363 3360 3354 3344 3341 3337 3338 3340 3342 3343 3345 3347 3349 3351 3352 3351 3351 3352 3353 3354 3355 3357 3359 3362 3364 3366 3368 3371 3376 3381 3383 3386 3388 3393 3398 3405 3412 3417 3422 3427 3430 3433 3438 3443 3446 3455 3457 3461 3465 3470 3476 3485 3496 3500 3508 3518 3537 3552 3574 3587 3602 3610 3622 3632 3644 3657 3670 3685 3694 3699 3703 3705 3709 3712 3715 3718 3723 3725 3728 3734 3744 3755 3768 3780 3789 3798 3809 3824 3838 3850 3863 3873 3884 3900 3913 3925 3936 3948 3959 3968 3980 3985 3986 3982 3976 3961 3958 3948 3947 3928 3917 3904 3893 3873 3880 3872 3869 3869 3870 3865 3857 3847 3824 3805 3783 3759 3744 3737 3724 3710 3696 3686 3676 3666 3657 3653 3651 3651 3648 3642 3636 3632 3629 3626 3624 3623 3623 3624 3625 3630 3634 3639 3639 3643 3645 3652 3660 3668 3674 3682 3689 3697 3705 3714 3721 3731 3739 3746 3754 3763 3772 3783 3793 3795 3799 3796 3794 3794 3792 3791 3788 3783 3776 3765 3753 3732 3715 3704 3667 3639 3610 3600 3584 3564 3554 3544 3535 3525 3515 3507 3500 3493 3486 3474 3463 3450 3441 3434 3428 3423 3419 3415 3414 3413 3411 3406 3400 3394 3390 3387 3386 3385 3385 3385 3386 3388 3388 3390 3396 3403 3416 3427 3438 3448 3456 3463 3466 3472 3478 3482 3487 3493 3501 3515 3530 3547 3565 3580 3596 3612 3630 3655 3685 3701 3714 3734 3755 3771 3782 3789 3796 3804 3813 3822 3828 3832 3838 3848 3858 3864 3870 3875 3881 3886 3891 3897 3899 3903 3906 3905 3903 3902 3901 3901 3904 3909 3914 3919 3930 3937 3939 3942 3952 3960 3969 3976 3980 3982 3987 3993 4000 4004 4007 4009 4013 4017 4021 4025 4028 4032 4036 4041 4043 4044 4043 4038 4036 4035 4035 4035 4033 4032 4028 4025 4023 4017 4016 4012 4006 4005 4006 4013 4015 4018 4020 4022 4026 4029 4032 4033 4031 4003 4038 4042 4031 4018 3996 3984 3929 3923 3924 3909 3903 3874 3872 3866 3847 3803 3747 3787 3773 3724 3723 3729 3730 3742 3754 3782 3787 3783 3788 3791 3794 3804 3802 3795 3796 3797 3800 3802 3795 3783 3770 3753 3739 3727 3711 3682 3670 3642 3629 3618 3598 3578 3561 3547 3537 3529 3520 3512 3503 3495 3486 3477 3472 3466 3459 3450 3444 3441 3441 3441 3441 3439 3439 3441 3443 3444 3446 3449 3450 3449 3449 3452 3454 3455 3456 3458 3459 3462 3469 3479 3486 3487 3490 3494 3499 3503 3507 3508 3508 3508 3502 3498 3495 3498 3503 3508 3514 3522 3528 3530 3533 3536 3539 3543 3548 3544 3539 3532 3526 3518 3509 3500 3493 3489 3488 3486 3486 3482 3483 3485 3489 3493 3492 3497 3507 3515 3522 3531 3536 3537 3539 3541 3541 3540 3543 3547 3550 3556 3562 3567 3567 3565 3559 3547 3543 3540 3537 3535 3533 3525 3517 3511 3512 3515 3514 3515 3512 3512 3510 3506 3500 3487 3471 3457 3446 3425 3409 3385 3372 3355 3339 3303 3287 3272 3243 3230 3215 3204 3196 3182 3165 3152 3147 3147 3146 3144 3140 3134 3126 3116 3104 3091 3078 3082 3094 3106 3122 3137 3151 3161 3161 3157 3145 3152 3160 3167 3171 3171 3170 3169 3175 3184 3190 3198
3319 3319 3318 3318 3320 3319 3323 3327 3333 3335 3339 3344 3349 3352 3356 3363 3368 3371 3372 3376 3379 3384 3386 3389 3392 3393 3391 3385 3379 3373 3363 3355 3352 3346 3342 3340 3339 3342 3345 3346 3346 3347 3349 3352 3354 3353 3351 3350 3350 3352 3354 3357 3359 3362 3365 3368 3371 3374 3377 3381 3385 3390 3393 3396 3400 3406 3413 3419 3425 3430 3438 3444 3450 3455 3461 3472 3481 3486 3492 3491 3492 3495 3502 3511 3519 3534 3546 3564 3587 3605 3619 3629 3638 3645 3652 3661 3671 3677 3684 3689 3693 3695 3695 3693 3694 3697 3702 3707 3712 3717 3725 3736 3746 3758 3771 3782 3792 3803 3816 3829 3842 3854 3865 3878 3894 3907 3918 3930 3943 3954 3965 3975 3981 3984 3984 3985 3971 3958 3960 3945 3939 3943 3930 3927 3923 3919 3913 3908 3905 3898 3892 3892 3883 3853 3817 3806 3769 3748 3740 3725 3711 3699 3687 3675 3663 3653 3648 3647 3644 3637 3627 3619 3615 3614 3612 3609 3606 3605 3608 3609 3614 3617 3625 3631 3635 3637 3642 3647 3653 3659 3664 3669 3675 3681 3688 3698 3707 3715 3725 3736 3749 3764 3778 3788 3795 3796 3794 3791 3790 3789 3786 3781 3773 3768 3758 3746 3727 3714 3704 3692 3669 3631 3606 3587 3575 3561 3549 3538 3525 3516 3508 3497 3489 3472 3461 3452 3443 3434 3425 3417 3411 3408 3406 3406 3404 3403 3401 3397 3393 3389 3387 3386 3385 3385 3385 3387 3389 3390 3395 3402 3414 3426 3437 3445 3451 3458 3462 3468 3474 3479 3483 3489 3497 3506 3519 3539 3557 3567 3582 3598 3615 3635 3662 3688 3706 3720 3738 3758 3773 3783 3790 3795 3802 3808 3815 3821 3825 3828 3834 3842 3851 3856 3863 3869 3875 3878 3879 3881 3883 3884 3884 3878 3875 3873 3873 3874 3879 3886 3895 3901 3907 3911 3916 3924 3936 3948 3958 3964 3967 3971 3976 3984 3991 3996 3998 4001 4005 4010 4015 4022 4029 4034 4038 4041 4039 4037 4033 4030 4030 4030 4029 4027 4026 4021 4019 4018 4016 4008 4007 3999 3997 4002 4009 4010 4012 4016 4017 4022 4024 4023 4018 3998 3980 3958 3998 3974 3981 3957 3903 3899 3896 3883 3871 3864 3848 3833 3814 3745 3725 3713 3717 3714 3709 3707 3703 3705 3705 3711 3720 3725 3740 3740 3746 3749 3752 3756 3764 3772 3782 3794 3799 3797 3789 3778 3767 3758 3751 3743 3732 3687 3666 3635 3615 3594 3576 3554 3541 3530 3520 3513 3506 3497 3492 3483 3473 3468 3464 3457 3448 3445 3444 3444 3445 3447 3448 3447 3451 3454 3456 3459 3461 3462 3462 3463 3465 3469 3475 3481 3483 3483 3486 3490 3493 3497 3499 3500 3504 3508 3516 3523 3528 3532 3531 3527 3524 3522 3521 3525 3528 3535 3543 3548 3551 3555 3558 3564 3563 3562 3558 3554 3549 3543 3537 3526 3518 3511 3507 3508 3503 3501 3500 3501 3502 3502 3505 3508 3513 3519 3527 3535 3541 3548 3551 3553 3553 3554 3558 3562 3565 3567 3569 3574 3578 3581 3582 3580 3571 3560 3555 3554 3554 3550 3545 3543 3541 3539 3536 3534 3530 3528 3529 3530 3526 3519 3508 3495 3485 3478 3454 3423 3402 3387 3371 3347 3328 3307 3290 3257 3234 3223 3209 3199 3189 3178 3169 3166 3170 3171 3168 3157 3144 3133 3126 3117 3106 3099 3103 3112 3125 3138 3153 3169 3183 3192 3188 3176 3183 3192 3194 3196 3195 3194 3194 3200 3212 3216 3220
3317 3316 3315 3317 3319 3319 3323 3326 3329 3333 3336 3341 3345 3349 3354 3360 3366 3370 3373 3376 3377 3382 3384 3385 3387 3388 3387 3383 3374 3365 3358 3351 3343 3341 3340 3340 3342 3344 3346 3347 3347 3348 3350 3352 3353 3351 3351 3350 3352 3354 3357 3360 3362 3364 3367 3370 3372 3374 3377 3381 3386 3391 3395 3399 3402 3407 3415 3423 3432 3440 3447 3454 3461 3470 3482 3493 3502 3509 3512 3516 3518 3519 3527 3538 3552 3570 3588 3600 3619 3630 3639 3644 3648 3653 3658 3664 3669 3672 3674 3675 3675 3676 3679 3680 3681 3685 3690 3697 3702 3709 3719 3728 3738 3749 3761 3774 3788 3802 3815 3826 3834 3842 3853 3869 3886 3900 3913 3927 3941 3952 3965 3972 3980 3987 3990 3986 3978 3969 3964 3974 3974 3968 3963 3961 3957 3953 3943 3933 3926 3916 3908 3904 3902 3890 3848 3823 3789 3767 3748 3732 3707 3695 3684 3672 3662 3651 3644 3637 3628 3622 3616 3609 3602 3598 3594 3591 3590 3591 3594 3596 3598 3603 3614 3620 3625 3629 3633 3637 3642 3644 3645 3647 3652 3655 3660 3671 3677 3689 3703 3719 3737 3756 3771 3781 3787 3790 3787 3783 3778 3775 3773 3769 3764 3759 3751 3742 3730 3715 3702 3689 3666 3643 3612 3594 3583 3567 3554 3539 3525 3513 3502 3488 3476 3464 3453 3443 3433 3422 3412 3406 3402 3401 3400 3397 3394 3393 3392 3389 3387 3386 3385 3384 3384 3384 3385 3388 3389 3395 3403 3411 3421 3434 3442 3446 3451 3456 3464 3469 3473 3478 3485 3493 3502 3510 3522 3541 3558 3574 3588 3602 3626 3646 3667 3696 3715 3728 3744 3758 3770 3778 3784 3788 3793 3799 3806 3811 3816 3818 3823 3828 3836 3844 3852 3855 3863 3866 3867 3864 3862 3857 3850 3845 3843 3841 3838 3840 3847 3858 3865 3872 3875 3881 3898 3909 3922 3927 3939 3947 3955 3963 3969 3977 3984 3990 3994 3998 4003 4008 4014 4019 4025 4031 4034 4036 4034 4032 4029 4027 4026 4026 4022 4021 4017 4015 4014 4010 4007 4002 3998 3995 3996 4000 4002 4004 4005 4008 4011 4013 4016 4013 4001 3976 3960 3933 3921 3920 3903 3884 3867 3858 3849 3848 3835 3817 3784 3751 3731 3718 3709 3708 3706 3704 3702 3698 3691 3686 3683 3684 3687 3691 3692 3698 3707 3714 3720 3727 3741 3757 3771 3783 3791 3793 3790 3786 3783 3781 3777 3756 3743 3728 3687 3636 3612 3595 3575 3554 3540 3528 3518 3509 3502 3495 3486 3479 3473 3469 3465 3458 3453 3451 3450 3451 3452 3454 3454 3457 3462 3463 3465 3471 3477 3480 3480 3485 3489 3493 3500 3505 3512 3515 3514 3511 3511 3516 3522 3526 3527 3528 3536 3539 3543 3546 3545 3546 3544 3544 3542 3543 3546 3551 3555 3562 3567 3573 3579 3581 3579 3579 3580 3575 3567 3561 3556 3549 3539 3530 3524 3523 3516 3514 3513 3514 3514 3517 3520 3527 3532 3538 3542 3547 3552 3556 3562 3563 3566 3569 3575 3579 3582 3583 3586 3587 3589 3591 3592 3590 3585 3579 3570 3565 3564 3563 3561 3559 3559 3560 3560 3554 3547 3542 3542 3542 3539 3534 3521 3513 3502 3493 3475 3452 3420 3401 3379 3361 3340 3324 3304 3276 3256 3232 3218 3210 3200 3192 3191 3189 3195 3196 3191 3178 3158 3144 3134 3124 3118 3113 3121 3132 3144 3154 3165 3181 3197 3207 3212 3215 3216 3218 3221 3219 3215 3215 3218 3225 3232 3236 3238
3311 3313 3314 3315 3315 3318 3320 3323 3326 3330 3333 3335 3340 3344 3349 3355 3363 3368 3373 3374 3376 3379 3379 3381 3382 3381 3378 3374 3370 3364 3357 3351 3342 3339 3340 3343 3345 3346 3346 3347 3346 3348 3349 3350 3351 3350 3350 3352 3354 3357 3359 3361 3363 3366 3368 3370 3372 3373 3376 3379 3385 3391 3395 3401 3406 3413 3423 3431 3441 3451 3462 3469 3483 3495 3505 3511 3515 3521 3528 3536 3546 3551 3560 3571 3587 3597 3612 3623 3630 3636 3641 3644 3647 3649 3652 3656 3658 3658 3658 3656 3657 3656 3657 3660 3666 3671 3677 3684 3693 3701 3712 3721 3732 3743 3755 3768 3786 3800 3812 3820 3829 3837 3845 3860 3877 3891 3904 3918 3934 3947 3957 3967 3974 3982 3985 3989 3993 3975 3976 4000 3994 3986 3993 3986 3977 3973 3952 3942 3940 3930 3928 3920 3915 3897 3873 3838 3790 3784 3746 3717 3700 3690 3685 3672 3660 3653 3644 3625 3615 3610 3606 3600 3593 3590 3584 3580 3580 3582 3585 3587 3590 3593 3601 3605 3610 3614 3620 3625 3627 3628 3630 3629 3631 3634 3640 3647 3660 3673 3690 3706 3721 3745 3760 3770 3775 3774 3771 3765 3760 3756 3754 3753 3749 3744 3739 3732 3724 3718 3707 3688 3663 3641 3612 3593 3584 3570 3554 3538 3524 3510 3494 3479 3466 3453 3441 3430 3421 3408 3399 3394 3393 3392 3391 3388 3386 3385 3384 3382 3381 3380 3381 3383 3383 3384 3386 3388 3392 3401 3410 3419 3429 3436 3442 3446 3453 3457 3463 3468 3473 3478 3486 3496 3506 3515 3525 3540 3557 3577 3595 3606 3626 3653 3685 3710 3722 3732 3745 3759 3768 3775 3780 3784 3785 3789 3793 3801 3805 3810 3814 3820 3828 3837 3845 3847 3850 3852 3849 3844 3835 3827 3822 3817 3810 3808 3807 3811 3817 3825 3832 3836 3846 3863 3876 3892 3910 3915 3929 3941 3950 3960 3968 3976 3984 3990 3995 4000 4005 4010 4015 4018 4023 4027 4029 4028 4029 4026 4023 4020 4022 4020 4017 4013 4011 4011 4006 4003 4002 3999 3993 3989 3992 3996 3997 4000 4001 4004 4005 4005 4005 3995 3980 3964 3915 3913 3894 3880 3858 3836 3825 3817 3808 3782 3762 3738 3733 3723 3716 3709 3703 3697 3692 3687 3680 3678 3674 3667 3661 3667 3666 3665 3668 3674 3682 3690 3701 3711 3724 3738 3755 3767 3779 3787 3793 3802 3801 3790 3781 3770 3749 3724 3688 3653 3628 3604 3580 3559 3539 3523 3514 3508 3499 3491 3481 3475 3471 3466 3461 3459 3457 3455 3455 3456 3458 3458 3461 3467 3471 3475 3479 3485 3491 3496 3500 3505 3509 3516 3521 3526 3532 3541 3545 3546 3549 3552 3555 3557 3554 3553 3556 3557 3559 3558 3560 3561 3559 3558 3559 3563 3564 3566 3573 3581 3587 3590 3597 3600 3603 3603 3604 3603 3595 3591 3584 3576 3565 3549 3541 3536 3533 3531 3528 3527 3529 3532 3537 3543 3548 3554 3557 3561 3563 3570 3576 3582 3586 3588 3590 3593 3595 3593 3595 3598 3599 3597 3595 3595 3594 3591 3587 3583 3581 3577 3577 3576 3576 3577 3572 3568 3562 3558 3555 3553 3551 3544 3531 3524 3515 3503 3495 3474 3443 3424 3386 3373 3360 3345 3320 3297 3275 3256 3237 3226 3215 3216 3217 3216 3219 3215 3208 3196 3176 3159 3146 3136 3131 3133 3146 3153 3161 3169 3181 3193 3206 3221 3232 3236 3240 3244 3240 3240 3238 3235 3236 3240 3242 3244 3244
3308 3309 3309 3311 3314 3317 3320 3321 3323 3327 3331 3334 3340 3343 3350 3357 3362 3368 3373 3375 3376 3376 3376 3375 3376 3375 3372 3369 3365 3358 3350 3343 3339 3338 3338 3341 3344 3345 3347 3349 3349 3348 3349 3348 3350 3349 3351 3353 3354 3356 3357 3357 3363 3369 3371 3373 3373 3373 3374 3377 3383 3391 3399 3405 3412 3422 3434 3447 3459 3473 3487 3498 3510 3519 3528 3533 3537 3543 3553 3562 3571 3581 3589 3597 3604 3611 3618 3624 3630 3635 3636 3636 3636 3634 3635 3636 3636 3640 3641 3641 3642 3643 3644 3650 3656 3663 3670 3678 3686 3694 3702 3714 3723 3734 3745 3760 3778 3792 3802 3814 3823 3833 3843 3854 3867 3877 3888 3905 3921 3934 3943 3953 3964 3973 3981 3986 3990 3997 3996 4001 4001 4002 4007 3998 3991 3985 3971 3963 3951 3943 3935 3922 3917 3913 3889 3847 3791 3787 3756 3721 3704 3694 3687 3675 3665 3655 3640 3618 3607 3601 3595 3588 3583 3578 3574 3571 3572 3573 3573 3572 3575 3583 3586 3588 3590 3594 3601 3605 3609 3611 3614 3615 3615 3618 3625 3633 3646 3662 3679 3696 3711 3729 3744 3754 3758 3757 3755 3751 3745 3741 3737 3735 3734 3734 3728 3724 3720 3717 3708 3678 3660 3636 3610 3590 3582 3561 3546 3533 3519 3503 3486 3469 3453 3436 3424 3415 3409 3400 3392 3388 3384 3381 3380 3379 3378 3377 3377 3376 3377 3377 3378 3380 3384 3386 3388 3391 3396 3405 3412 3421 3429 3434 3439 3445 3451 3455 3459 3465 3471 3478 3487 3497 3507 3517 3528 3542 3561 3580 3597 3609 3627 3654 3688 3710 3724 3731 3744 3758 3768 3774 3778 3782 3785 3788 3792 3796 3798 3803 3807 3813 3820 3827 3835 3839 3839 3839 3835 3828 3819 3810 3801 3788 3779 3778 3780 3786 3791 3797 3803 3813 3828 3848 3864 3873 3895 3906 3921 3934 3945 3954 3965 3976 3982 3987 3993 3998 4002 4009 4012 4016 4020 4023 4024 4025 4022 4019 4018 4016 4015 4013 4007 4006 4005 4004 3997 3994 3992 3989 3983 3981 3982 3983 3987 3989 3990 3994 3994 3991 3984 3970 3930 3909 3891 3859 3849 3837 3815 3801 3787 3778 3763 3744 3730 3724 3720 3711 3701 3692 3681 3673 3669 3669 3668 3662 3653 3645 3640 3637 3638 3644 3650 3654 3659 3666 3679 3688 3699 3717 3738 3751 3761 3782 3798 3806 3807 3800 3787 3770 3750 3724 3685 3672 3645 3616 3583 3572 3539 3521 3512 3506 3497 3486 3477 3472 3468 3464 3462 3461 3460 3460 3461 3463 3464 3467 3471 3478 3482 3485 3491 3500 3506 3511 3516 3520 3525 3532 3537 3544 3552 3560 3562 3568 3572 3575 3576 3575 3574 3576 3578 3575 3577 3576 3576 3576 3573 3574 3576 3578 3581 3590 3598 3606 3612 3617 3621 3627 3628 3629 3626 3621 3614 3607 3601 3595 3589 3581 3569 3559 3552 3546 3545 3543 3542 3543 3550 3555 3558 3566 3574 3583 3589 3591 3593 3596 3598 3597 3598 3600 3602 3602 3604 3604 3604 3602 3601 3599 3598 3597 3597 3595 3592 3589 3587 3586 3586 3586 3582 3577 3571 3567 3563 3562 3559 3551 3544 3534 3520 3509 3501 3489 3458 3423 3393 3381 3374 3364 3347 3315 3294 3278 3266 3257 3250 3248 3248 3244 3239 3235 3225 3210 3197 3183 3170 3162 3157 3159 3167 3171 3181 3191 3201 3209 3226 3240 3255 3267 3268 3269 3264 3259 3252 3248 3249 3248 3247 3246 3243
3308 3308 3307 3308 3312 3316 3318 3320 3323 3327 3330 3334 3338 3343 3350 3359 3365 3368 3371 3371 3371 3373 3373 3373 3373 3371 3368 3364 3359 3349 3338 3331 3329 3328 3329 3334 3339 3343 3347 3348 3348 3347 3346 3346 3348 3349 3350 3353 3353 3354 3354 3359 3364 3371 3376 3379 3380 3380 3380 3382 3389 3398 3407 3416 3424 3438 3454 3467 3482 3496 3507 3517 3529 3540 3549 3556 3565 3567 3580 3589 3596 3599 3601 3605 3609 3614 3616 3619 3620 3620 3619 3614 3614 3613 3616 3615 3613 3615 3619 3620 3625 3629 3634 3640 3646 3655 3664 3669 3678 3687 3696 3704 3715 3727 3738 3751 3768 3781 3795 3805 3815 3826 3835 3848 3859 3870 3879 3896 3914 3923 3932 3941 3953 3966 3975 3982 3985 3992 3999 4003 4008 4011 4012 4033 4031 4019 4008 3986 3965 3939 3929 3924 3919 3913 3893 3860 3801 3792 3750 3721 3716 3705 3692 3681 3666 3655 3636 3619 3605 3596 3590 3582 3571 3569 3568 3567 3565 3565 3562 3559 3559 3564 3571 3578 3579 3581 3585 3591 3593 3594 3595 3594 3595 3600 3609 3619 3632 3649 3664 3680 3697 3711 3726 3733 3738 3737 3735 3732 3726 3721 3717 3721 3722 3723 3723 3720 3714 3708 3696 3660 3637 3618 3598 3580 3569 3549 3532 3516 3497 3486 3471 3448 3433 3419 3409 3402 3396 3388 3385 3379 3375 3373 3373 3372 3372 3371 3370 3370 3372 3375 3379 3382 3385 3387 3390 3394 3399 3407 3412 3420 3426 3430 3435 3441 3446 3452 3458 3464 3471 3480 3491 3501 3510 3520 3531 3544 3564 3585 3601 3614 3631 3659 3683 3706 3719 3726 3739 3752 3764 3771 3775 3780 3783 3789 3795 3797 3798 3800 3802 3807 3814 3822 3827 3832 3832 3828 3821 3813 3804 3790 3776 3763 3756 3753 3753 3757 3765 3774 3785 3797 3814 3832 3849 3867 3884 3901 3916 3930 3940 3951 3960 3969 3978 3985 3991 3996 4001 4007 4010 4013 4020 4017 4016 4014 4013 4013 4012 4010 4006 4001 3997 3996 3992 3991 3990 3986 3982 3978 3975 3973 3969 3971 3970 3971 3970 3975 3971 3956 3918 3878 3856 3845 3822 3818 3803 3790 3778 3773 3762 3752 3738 3726 3721 3713 3703 3690 3682 3671 3661 3657 3654 3652 3646 3643 3633 3629 3625 3622 3619 3623 3627 3635 3644 3648 3655 3666 3677 3690 3705 3731 3745 3772 3796 3806 3813 3810 3797 3781 3753 3724 3703 3671 3643 3614 3581 3569 3553 3530 3522 3512 3501 3492 3481 3470 3464 3462 3462 3462 3464 3466 3469 3471 3475 3481 3488 3496 3496 3497 3501 3507 3518 3523 3530 3535 3542 3547 3555 3566 3573 3578 3585 3592 3595 3597 3596 3595 3594 3594 3593 3594 3593 3594 3594 3594 3592 3593 3596 3599 3607 3613 3621 3630 3638 3644 3649 3655 3654 3653 3648 3641 3633 3627 3621 3614 3609 3601 3592 3578 3570 3568 3566 3564 3562 3564 3566 3569 3574 3578 3588 3597 3600 3602 3605 3607 3608 3609 3609 3609 3610 3610 3611 3610 3609 3608 3607 3603 3601 3599 3598 3596 3596 3593 3590 3587 3586 3586 3583 3579 3573 3567 3565 3561 3559 3557 3552 3549 3546 3524 3517 3513 3486 3433 3428 3391 3387 3370 3354 3336 3315 3304 3292 3284 3279 3276 3274 3267 3258 3251 3239 3227 3214 3199 3192 3188 3183 3186 3190 3197 3207 3221 3230 3240 3254 3267 3279 3286 3292 3293 3277 3270 3261 3254 3251 3252 3251 3245 3239
3305 3303 3302 3305 3308 3311 3314 3317 3321 3327 3331 3334 3339 3344 3349 3357 3363 3366 3368 3369 3371 3373 3372 3373 3370 3366 3364 3357 3348 3339 3328 3325 3324 3324 3326 3331 3339 3344 3346 3347 3345 3343 3341 3344 3347 3349 3351 3351 3351 3353 3358 3365 3371 3377 3381 3382 3385 3387 3390 3392 3399 3408 3419 3430 3444 3459 3472 3486 3499 3508 3516 3531 3545 3556 3566 3574 3581 3588 3593 3598 3601 3603 3603 3601 3602 3604 3604 3603 3600 3597 3596 3595 3592 3595 3593 3594 3597 3601 3604 3601 3607 3612 3620 3626 3634 3643 3650 3657 3667 3678 3689 3698 3708 3721 3732 3744 3758 3770 3781 3795 3808 3819 3828 3838 3849 3861 3871 3885 3901 3915 3923 3932 3940 3953 3970 3978 3983 3989 3989 3997 4010 4019 4028 4035 4032 4030 4028 4003 3982 3935 3934 3928 3918 3913 3900 3889 3847 3791 3747 3721 3716 3711 3700 3689 3669 3651 3636 3620 3606 3596 3584 3573 3569 3568 3566 3563 3560 3559 3557 3555 3554 3555 3559 3565 3570 3572 3573 3572 3572 3572 3574 3574 3579 3586 3596 3606 3618 3633 3647 3661 3674 3692 3710 3721 3725 3724 3715 3706 3698 3693 3695 3698 3703 3707 3709 3709 3704 3694 3671 3645 3623 3604 3585 3575 3560 3536 3517 3498 3484 3472 3455 3442 3422 3407 3398 3392 3387 3381 3376 3373 3370 3368 3368 3368 3368 3367 3365 3366 3371 3375 3379 3381 3383 3386 3391 3396 3402 3407 3413 3418 3424 3430 3436 3441 3446 3452 3459 3465 3472 3482 3493 3501 3509 3520 3532 3550 3569 3587 3602 3617 3631 3648 3672 3695 3711 3725 3740 3754 3763 3771 3777 3778 3780 3785 3792 3796 3799 3800 3803 3807 3811 3816 3819 3820 3817 3811 3804 3793 3783 3769 3751 3742 3738 3735 3735 3739 3745 3757 3772 3787 3805 3826 3850 3867 3882 3895 3909 3924 3938 3948 3957 3965 3975 3982 3985 3990 3993 4000 4006 4008 4009 4007 4004 4001 3999 3999 3999 3997 3991 3988 3985 3984 3982 3982 3980 3978 3973 3968 3965 3960 3955 3951 3946 3941 3929 3900 3887 3865 3843 3822 3810 3788 3781 3763 3767 3757 3752 3751 3743 3736 3726 3717 3707 3697 3686 3674 3667 3657 3652 3646 3640 3631 3629 3620 3614 3611 3606 3602 3603 3605 3612 3619 3627 3634 3640 3648 3660 3673 3690 3709 3732 3762 3787 3805 3815 3814 3812 3795 3761 3738 3717 3676 3649 3613 3582 3584 3560 3541 3532 3524 3517 3504 3492 3478 3471 3469 3465 3466 3468 3472 3477 3484 3492 3498 3505 3510 3513 3516 3519 3523 3531 3539 3543 3549 3555 3563 3574 3583 3590 3594 3601 3606 3609 3611 3615 3616 3615 3613 3612 3612 3611 3612 3614 3617 3615 3616 3620 3625 3631 3636 3642 3648 3654 3662 3668 3669 3670 3669 3664 3657 3654 3652 3646 3635 3628 3619 3608 3596 3586 3585 3586 3585 3585 3585 3579 3580 3582 3590 3601 3607 3611 3613 3615 3617 3619 3620 3619 3619 3619 3618 3617 3616 3613 3611 3608 3606 3604 3602 3599 3597 3596 3595 3590 3587 3585 3585 3584 3581 3576 3571 3569 3566 3562 3561 3563 3556 3547 3539 3527 3520 3507 3477 3440 3428 3396 3381 3369 3359 3343 3328 3317 3308 3305 3306 3302 3293 3281 3264 3251 3244 3234 3225 3216 3213 3215 3216 3225 3231 3239 3247 3259 3269 3284 3292 3299 3305 3306 3294 3289 3274 3262 3255 3252 3250 3247 3242 3236
3296 3298 3298 3300 3303 3305 3308 3312 3318 3326 3331 3335 3341 3345 3349 3353 3359 3362 3364 3367 3370 3371 3373 3371 3368 3363 3358 3348 3337 3330 3324 3322 3321 3322 3326 3334 3339 3342 3343 3343 3341 3338 3338 3344 3347 3348 3349 3351 3353 3355 3361 3370 3376 3380 3382 3385 3389 3393 3399 3405 3414 3421 3435 3444 3459 3476 3490 3497 3507 3519 3533 3549 3561 3569 3577 3582 3587 3590 3592 3594 3595 3591 3588 3586 3586 3583 3580 3575 3570 3569 3569 3572 3573 3572 3573 3577 3581 3582 3584 3588 3595 3603 3610 3613 3618 3627 3636 3647 3659 3671 3683 3692 3703 3715 3728 3738 3750 3760 3773 3787 3799 3812 3821 3828 3838 3852 3867 3878 3887 3903 3914 3922 3930 3942 3955 3968 3978 3982 3987 3994 4005 4015 4024 4030 4032 4032 4036 4024 3991 3958 3949 3936 3922 3907 3898 3882 3845 3801 3782 3770 3715 3708 3695 3683 3667 3652 3635 3618 3607 3590 3578 3568 3564 3564 3561 3558 3556 3555 3553 3552 3550 3551 3554 3558 3560 3560 3559 3559 3558 3558 3561 3562 3568 3576 3585 3597 3611 3626 3640 3653 3666 3678 3686 3694 3692 3687 3679 3680 3677 3678 3680 3681 3683 3688 3691 3687 3684 3673 3659 3637 3617 3593 3573 3559 3545 3519 3497 3483 3470 3456 3444 3429 3413 3401 3394 3389 3382 3377 3374 3372 3370 3368 3366 3365 3365 3365 3366 3369 3373 3377 3378 3379 3380 3385 3392 3396 3402 3408 3412 3419 3424 3430 3436 3442 3447 3452 3458 3465 3471 3479 3492 3500 3510 3519 3535 3557 3576 3591 3605 3619 3634 3654 3672 3697 3717 3737 3753 3766 3773 3779 3782 3782 3782 3784 3789 3793 3796 3799 3801 3804 3806 3808 3809 3808 3805 3799 3790 3774 3758 3739 3726 3722 3721 3721 3722 3726 3733 3744 3757 3774 3791 3813 3845 3862 3874 3886 3900 3916 3935 3945 3954 3960 3967 3975 3979 3985 3990 3993 3999 4000 3998 3995 3993 3990 3987 3985 3982 3976 3975 3973 3973 3972 3973 3972 3969 3967 3961 3957 3955 3950 3943 3931 3922 3877 3865 3842 3827 3803 3786 3773 3756 3749 3742 3735 3736 3736 3737 3735 3729 3724 3716 3704 3692 3682 3676 3666 3657 3651 3641 3634 3627 3619 3613 3608 3603 3598 3593 3590 3592 3594 3600 3607 3616 3621 3626 3635 3646 3657 3672 3691 3720 3746 3768 3787 3798 3809 3815 3809 3780 3739 3718 3696 3658 3635 3603 3585 3563 3559 3548 3537 3527 3514 3505 3492 3486 3483 3481 3479 3482 3488 3495 3500 3505 3511 3516 3525 3533 3540 3544 3544 3551 3560 3562 3569 3577 3586 3595 3599 3604 3610 3613 3616 3619 3623 3624 3625 3624 3626 3624 3627 3627 3632 3635 3637 3635 3635 3637 3641 3646 3650 3653 3656 3661 3669 3676 3681 3686 3684 3680 3675 3671 3669 3663 3652 3642 3631 3625 3615 3605 3602 3600 3599 3598 3594 3595 3597 3598 3606 3613 3619 3625 3630 3630 3630 3631 3631 3628 3628 3626 3624 3622 3620 3618 3614 3611 3608 3607 3605 3603 3601 3600 3598 3594 3590 3587 3585 3584 3583 3580 3577 3571 3568 3565 3561 3559 3558 3550 3542 3538 3530 3512 3507 3479 3440 3417 3402 3398 3386 3368 3351 3337 3331 3333 3330 3328 3318 3301 3285 3267 3259 3255 3251 3243 3243 3245 3249 3252 3256 3266 3281 3291 3299 3308 3312 3313 3313 3309 3300 3286 3273 3263 3256 3251 3247 3242 3237 3233
3291 3292 3293 3295 3299 3302 3305 3310 3317 3323 3329 3336 3340 3345 3350 3354 3357 3359 3362 3365 3367 3369 3370 3370 3366 3362 3353 3342 3332 3324 3319 3319 3320 3322 3327 3333 3336 3336 3337 3337 3335 3335 3337 3342 3347 3348 3348 3350 3353 3357 3361 3368 3375 3379 3382 3386 3389 3396 3404 3413 3424 3437 3452 3463 3476 3493 3502 3513 3527 3543 3557 3563 3569 3574 3578 3581 3582 3581 3579 3575 3572 3567 3564 3563 3563 3562 3559 3556 3555 3553 3550 3549 3548 3551 3555 3557 3560 3562 3568 3575 3582 3588 3598 3605 3612 3620 3629 3637 3649 3663 3675 3687 3698 3710 3719 3730 3743 3756 3768 3779 3790 3801 3810 3817 3829 3845 3859 3871 3879 3890 3903 3911 3920 3929 3941 3952 3961 3970 3978 3987 3997 4008 4018 4024 4029 4033 4035 4029 4005 3973 3950 3941 3914 3903 3898 3884 3849 3801 3783 3755 3707 3692 3683 3674 3661 3644 3626 3613 3599 3587 3573 3565 3563 3560 3559 3557 3554 3553 3554 3552 3550 3549 3551 3553 3554 3554 3554 3554 3553 3551 3556 3559 3565 3572 3580 3590 3604 3619 3632 3645 3656 3664 3669 3668 3665 3660 3659 3658 3658 3659 3661 3663 3666 3668 3666 3665 3660 3657 3640 3629 3609 3579 3563 3551 3532 3505 3485 3465 3456 3445 3434 3423 3405 3394 3387 3383 3378 3374 3372 3369 3367 3367 3366 3363 3362 3363 3365 3369 3373 3374 3375 3375 3378 3384 3390 3397 3405 3412 3418 3423 3427 3433 3438 3443 3447 3453 3458 3462 3470 3479 3491 3501 3512 3524 3538 3559 3579 3594 3610 3626 3646 3663 3681 3709 3734 3748 3761 3770 3776 3779 3782 3784 3784 3785 3788 3791 3792 3796 3800 3802 3803 3803 3801 3801 3796 3787 3774 3745 3724 3711 3705 3703 3704 3704 3706 3713 3724 3735 3748 3764 3782 3801 3830 3849 3863 3877 3890 3907 3926 3942 3950 3955 3961 3969 3974 3977 3980 3982 3985 3988 3988 3986 3983 3980 3979 3976 3973 3968 3965 3966 3964 3962 3961 3957 3952 3949 3944 3944 3944 3938 3932 3924 3910 3845 3832 3808 3776 3758 3744 3734 3727 3722 3719 3714 3716 3715 3716 3718 3714 3705 3699 3689 3679 3670 3660 3653 3648 3638 3628 3623 3617 3613 3604 3594 3589 3585 3579 3575 3577 3579 3582 3589 3597 3604 3613 3623 3630 3638 3654 3674 3700 3727 3747 3763 3776 3789 3804 3801 3795 3755 3719 3691 3683 3660 3636 3602 3584 3560 3551 3550 3534 3528 3523 3512 3505 3502 3504 3504 3504 3508 3512 3517 3517 3532 3541 3546 3553 3558 3561 3565 3572 3581 3586 3593 3602 3609 3617 3623 3627 3630 3635 3641 3647 3647 3646 3644 3641 3640 3641 3644 3646 3649 3654 3656 3657 3655 3657 3658 3659 3661 3664 3669 3675 3686 3696 3703 3706 3706 3707 3703 3695 3688 3681 3669 3656 3646 3642 3637 3628 3618 3614 3613 3615 3616 3617 3618 3622 3627 3630 3633 3637 3641 3642 3641 3639 3638 3634 3632 3629 3626 3623 3620 3619 3618 3616 3612 3610 3609 3606 3603 3600 3598 3594 3592 3587 3586 3585 3580 3575 3571 3569 3566 3562 3560 3557 3557 3554 3548 3538 3525 3516 3500 3475 3448 3428 3421 3417 3408 3394 3372 3356 3352 3351 3354 3353 3335 3314 3295 3282 3279 3277 3274 3272 3271 3274 3277 3282 3290 3296 3305 3315 3322 3327 3324 3320 3313 3304 3291 3279 3269 3260 3254 3249 3245 3241 3236 3232
3284 3287 3289 3292 3294 3299 3303 3309 3316 3322 3328 3332 3337 3342 3350 3354 3358 3359 3361 3362 3363 3365 3365 3366 3362 3355 3345 3336 3327 3321 3318 3316 3318 3322 3326 3331 3333 3333 3334 3336 3336 3337 3338 3343 3347 3348 3348 3351 3354 3358 3360 3363 3368 3372 3377 3382 3387 3396 3408 3415 3429 3447 3465 3478 3494 3511 3528 3541 3550 3556 3561 3564 3566 3568 3569 3567 3562 3558 3553 3551 3549 3549 3550 3550 3548 3547 3546 3544 3542 3543 3542 3541 3541 3540 3540 3541 3545 3549 3556 3565 3573 3579 3587 3596 3604 3613 3622 3631 3642 3654 3668 3681 3692 3702 3711 3723 3737 3752 3764 3774 3785 3793 3803 3811 3824 3839 3849 3861 3871 3881 3891 3900 3909 3920 3932 3941 3949 3959 3971 3978 3988 3999 4007 4015 4021 4027 4031 4028 4001 3976 3970 3944 3912 3908 3891 3848 3818 3796 3743 3725 3705 3686 3685 3674 3656 3640 3622 3605 3591 3580 3571 3564 3560 3556 3555 3556 3555 3557 3556 3555 3554 3551 3552 3553 3552 3553 3553 3553 3551 3552 3554 3558 3564 3571 3579 3585 3596 3608 3620 3629 3639 3644 3645 3644 3643 3640 3639 3637 3636 3635 3640 3643 3645 3644 3643 3642 3639 3636 3634 3622 3605 3563 3555 3540 3518 3496 3472 3455 3443 3435 3428 3417 3402 3389 3383 3378 3374 3371 3368 3365 3363 3363 3362 3361 3361 3363 3366 3369 3371 3372 3371 3373 3377 3383 3390 3397 3404 3411 3420 3425 3432 3438 3443 3447 3451 3454 3457 3461 3469 3480 3493 3505 3518 3529 3543 3562 3584 3604 3621 3639 3660 3677 3702 3723 3743 3758 3769 3776 3779 3781 3783 3783 3784 3786 3787 3789 3790 3793 3796 3798 3798 3796 3793 3788 3780 3763 3743 3722 3709 3700 3697 3693 3691 3691 3693 3700 3711 3724 3736 3754 3772 3794 3815 3837 3857 3873 3886 3900 3915 3933 3944 3951 3958 3964 3969 3971 3972 3974 3974 3975 3975 3973 3972 3969 3966 3964 3961 3958 3956 3954 3952 3952 3949 3944 3937 3934 3934 3933 3930 3927 3927 3905 3889 3871 3792 3770 3752 3738 3728 3720 3714 3716 3704 3698 3691 3693 3690 3687 3685 3681 3674 3672 3665 3657 3649 3643 3638 3631 3624 3616 3608 3603 3594 3586 3580 3575 3571 3566 3564 3566 3570 3574 3578 3583 3592 3604 3613 3622 3632 3654 3688 3711 3724 3741 3759 3775 3787 3798 3793 3785 3744 3716 3685 3684 3664 3634 3613 3585 3564 3554 3545 3545 3542 3537 3529 3523 3524 3526 3526 3527 3528 3533 3539 3545 3555 3564 3570 3576 3582 3588 3593 3601 3608 3620 3630 3635 3639 3644 3650 3655 3660 3665 3670 3673 3673 3673 3668 3667 3669 3671 3674 3674 3673 3674 3673 3675 3678 3682 3686 3688 3690 3693 3700 3706 3714 3721 3722 3722 3723 3721 3715 3707 3698 3688 3676 3665 3661 3658 3651 3640 3633 3629 3632 3631 3635 3638 3644 3647 3648 3651 3654 3655 3651 3647 3644 3643 3640 3638 3636 3632 3629 3628 3627 3628 3626 3623 3618 3615 3612 3608 3604 3600 3598 3594 3589 3587 3582 3577 3572 3569 3566 3563 3560 3558 3556 3554 3550 3542 3532 3521 3512 3500 3480 3459 3448 3435 3432 3427 3414 3403 3387 3374 3370 3370 3362 3351 3332 3314 3307 3306 3301 3296 3292 3294 3302 3306 3308 3313 3326 3333 3341 3340 3332 3330 3318 3306 3295 3285 3273 3264 3258 3254 3250 3246 3243 3237 3231
3276 3281 3284 3285 3288 3295 3302 3309 3314 3321 3326 3331 3334 3339 3346 3353 3359 3361 3362 3362 3361 3362 3362 3361 3358 3348 3335 3326 3321 3317 3315 3315 3317 3322 3328 3330 3331 3331 3333 3335 3337 3338 3340 3342 3343 3345 3348 3352 3355 3358 3361 3362 3363 3367 3374 3382 3389 3401 3412 3426 3441 3460 3483 3492 3517 3532 3541 3548 3552 3553 3553 3555 3553 3550 3549 3546 3542 3539 3538 3537 3537 3536 3537 3539 3539 3538 3534 3531 3530 3530 3529 3526 3524 3526 3527 3529 3532 3537 3545 3552 3559 3568 3575 3583 3594 3605 3615 3624 3636 3649 3663 3674 3683 3690 3701 3715 3730 3743 3754 3766 3777 3786 3798 3807 3818 3831 3842 3854 3863 3871 3879 3889 3898 3907 3919 3929 3939 3945 3954 3965 3975 3986 3997 4006 4012 4019 4022 4016 4006 3982 3969 3952 3921 3894 3880 3840 3819 3789 3761 3738 3705 3694 3682 3674 3660 3640 3623 3605 3593 3581 3575 3569 3563 3560 3556 3556 3556 3554 3554 3554 3555 3554 3555 3556 3557 3558 3558 3555 3554 3554 3555 3558 3565 3572 3578 3582 3588 3599 3607 3612 3619 3622 3623 3622 3618 3616 3614 3612 3611 3612 3619 3621 3624 3625 3624 3623 3624 3621 3617 3608 3577 3562 3542 3527 3512 3496 3475 3457 3443 3437 3431 3421 3410 3395 3384 3378 3376 3373 3368 3365 3363 3362 3360 3360 3362 3365 3367 3367 3366 3367 3368 3372 3377 3385 3393 3398 3403 3411 3419 3426 3431 3439 3443 3446 3452 3456 3458 3463 3473 3485 3496 3508 3523 3536 3552 3570 3590 3610 3628 3647 3669 3689 3709 3727 3746 3763 3771 3776 3781 3782 3784 3783 3784 3785 3785 3785 3786 3790 3791 3792 3791 3787 3778 3767 3754 3735 3718 3702 3691 3682 3680 3679 3679 3682 3686 3693 3702 3714 3728 3745 3766 3788 3810 3829 3849 3865 3879 3894 3907 3922 3936 3947 3955 3960 3963 3966 3968 3969 3969 3968 3965 3964 3961 3958 3955 3953 3951 3947 3944 3943 3942 3942 3939 3933 3926 3923 3924 3923 3919 3903 3896 3889 3870 3832 3804 3748 3746 3730 3714 3705 3703 3694 3682 3676 3676 3675 3674 3672 3668 3666 3662 3660 3655 3648 3641 3635 3631 3626 3621 3614 3606 3599 3590 3585 3578 3569 3564 3559 3553 3555 3558 3559 3563 3568 3578 3588 3597 3604 3613 3627 3653 3687 3704 3721 3735 3752 3769 3784 3786 3777 3767 3742 3715 3685 3671 3649 3630 3611 3585 3574 3578 3570 3565 3560 3551 3541 3537 3538 3540 3541 3545 3554 3560 3567 3576 3584 3588 3596 3603 3610 3613 3621 3633 3642 3649 3654 3660 3663 3667 3670 3676 3681 3686 3691 3693 3694 3695 3698 3697 3698 3701 3702 3702 3701 3699 3698 3700 3706 3713 3719 3721 3720 3722 3729 3734 3738 3740 3739 3735 3729 3723 3717 3707 3699 3696 3693 3687 3682 3674 3664 3654 3652 3648 3650 3653 3655 3658 3659 3660 3662 3661 3658 3656 3652 3648 3646 3645 3644 3641 3639 3635 3634 3633 3631 3628 3625 3621 3618 3614 3611 3606 3602 3599 3595 3591 3587 3581 3573 3568 3564 3561 3559 3555 3552 3548 3547 3545 3538 3529 3518 3512 3507 3495 3479 3459 3455 3448 3443 3437 3425 3415 3407 3401 3395 3382 3366 3349 3339 3332 3327 3323 3314 3314 3317 3322 3335 3342 3351 3354 3355 3353 3347 3337 3325 3311 3297 3284 3274 3264 3259 3254 3251 3248 3244 3241 3237 3229
3271 3276 3281 3281 3285 3293 3302 3309 3314 3320 3326 3331 3336 3340 3345 3351 3356 3360 3361 3361 3360 3359 3359 3357 3353 3344 3329 3318 3314 3313 3312 3312 3316 3320 3324 3328 3328 3327 3329 3333 3336 3338 3340 3341 3341 3343 3345 3348 3350 3352 3354 3356 3359 3366 3376 3387 3395 3408 3423 3440 3459 3482 3493 3514 3529 3535 3539 3541 3539 3538 3537 3533 3530 3530 3530 3529 3529 3530 3531 3529 3526 3524 3521 3522 3521 3519 3516 3515 3514 3512 3510 3510 3509 3511 3513 3519 3523 3528 3534 3540 3548 3555 3563 3573 3583 3594 3606 3618 3632 3643 3654 3665 3678 3687 3696 3708 3720 3733 3745 3758 3771 3782 3791 3802 3811 3824 3836 3846 3858 3864 3872 3880 3889 3897 3905 3917 3927 3935 3943 3953 3961 3971 3982 3992 4001 4008 4012 4013 4008 4003 3981 3969 3936 3893 3874 3847 3822 3790 3757 3732 3704 3695 3687 3677 3664 3646 3632 3619 3604 3595 3587 3578 3573 3566 3562 3559 3557 3555 3554 3554 3555 3553 3555 3556 3560 3560 3559 3555 3556 3557 3555 3558 3566 3572 3575 3578 3584 3592 3599 3604 3608 3609 3607 3606 3605 3602 3598 3595 3593 3594 3598 3599 3602 3602 3601 3599 3599 3596 3586 3576 3564 3550 3528 3514 3507 3493 3473 3458 3448 3439 3431 3424 3413 3397 3387 3381 3377 3375 3369 3366 3364 3361 3358 3358 3360 3362 3363 3361 3362 3362 3363 3374 3380 3389 3395 3398 3404 3412 3421 3429 3436 3442 3446 3448 3450 3455 3459 3466 3477 3489 3500 3511 3525 3540 3554 3571 3590 3611 3632 3656 3681 3699 3712 3727 3744 3758 3766 3773 3777 3779 3781 3782 3783 3781 3779 3780 3782 3785 3786 3787 3781 3774 3762 3742 3722 3701 3686 3675 3667 3662 3662 3663 3668 3675 3680 3687 3697 3709 3724 3742 3761 3783 3806 3825 3843 3859 3872 3886 3903 3920 3932 3944 3952 3957 3960 3962 3963 3962 3960 3958 3955 3953 3951 3949 3948 3947 3943 3936 3933 3932 3932 3930 3926 3921 3917 3915 3912 3908 3897 3869 3861 3868 3830 3788 3744 3741 3731 3716 3701 3689 3681 3676 3671 3667 3664 3663 3663 3659 3657 3656 3654 3652 3648 3643 3637 3632 3630 3629 3624 3616 3610 3601 3594 3588 3578 3569 3560 3552 3546 3545 3548 3550 3555 3561 3567 3576 3583 3592 3601 3612 3624 3656 3684 3702 3720 3735 3752 3761 3765 3763 3765 3762 3749 3712 3691 3669 3647 3632 3606 3601 3593 3585 3586 3582 3581 3573 3569 3565 3561 3563 3574 3581 3589 3595 3598 3602 3608 3613 3619 3628 3634 3641 3649 3654 3661 3669 3677 3681 3685 3688 3693 3698 3704 3710 3714 3718 3723 3726 3726 3726 3724 3728 3727 3726 3726 3726 3728 3732 3738 3742 3746 3749 3752 3752 3752 3752 3753 3750 3746 3741 3735 3725 3718 3714 3709 3706 3702 3699 3692 3684 3676 3673 3673 3675 3676 3672 3671 3670 3668 3667 3666 3665 3662 3656 3652 3650 3648 3646 3644 3642 3640 3639 3637 3636 3631 3627 3623 3620 3616 3612 3609 3604 3597 3592 3589 3584 3580 3575 3568 3563 3557 3554 3551 3548 3546 3546 3545 3537 3526 3517 3512 3511 3511 3502 3494 3488 3469 3459 3452 3449 3446 3440 3432 3419 3396 3386 3375 3368 3358 3349 3341 3334 3332 3333 3343 3357 3366 3370 3365 3359 3351 3339 3328 3314 3302 3291 3279 3263 3257 3254 3250 3241 3234 3230 3229 3226 3222
