ncols        387
nrows        48
xllcorner    -118.377601393
yllcorner    36.5841940039
cellsize     0.000906194390
NODATA_value -32768
-32768 -32768 -32768 3698 3614 3579 3551 3538 3525 3500 3500 3478 3456 3453 3447 3440 3439 3431 3426 3419 3409 3406 3403 3402 3404 3399 3411 3474 3525 3540 3727 3736 3743 3722 3690 3690 3619 3605 3608 3613 3620 3628 3644 3656 3704 3746 3787 3830 3868 3905 3946 4027 4066 4100 4133 4156 4168 4182 4193 4219 4228 4228 4202 4146 4131 4115 4085 4055 4005 3994 4019 4120 4138 4099 4111 4098 4062 4007 3940 3863 3718 3703 3651 3556 3537 3505 3473 3473 3472 3470 3469 3637 3736 3747 3768 3726 3669 3615 3574 3431 3363 3295 3263 3230 3211 3198 3179 3199 3225 3287 3340 3401 3445 3445 3477 3436 3415 3332 3333 3202 3191 3195 3206 3261 3320 3367 3475 3455 3445 3420 3394 3347 3318 3277 3229 3200 3128 3089 3018 3018 2953 2935 2903 2864 2837 2689 2628 2618 2620 2632 2580 2527 2488 2455 2425 2397 2356 2306 2250 2193 2151 2114 2045 2024 2013 2013 2005 1996 1987 1981 1976 1956 1949 1943 1937 1930 1921 1913 1896 1890 1881 1873 1867 1858 1852 1846 1834 1829 1822 1816 1812 1812 1805 1798 1790 1771 1767 1758 1750 1744 1738 1733 1718 1713 1706 1699 1694 1687 1681 1676 1669 1665 1664 1661 1654 1644 1644 1632 1626 1625 1623 1616 1611 1609 1610 1606 1601 1601 1596 1593 1588 1591 1587 1583 1571 1571 1565 1562 1562 1560 1555 1550 1550 1548 1546 1544 1542 1537 1532 1530 1527 1523 1516 1509 1505 1507 1506 1502 1499 1501 1499 1497 1495 1487 1486 1481 1480 1480 1480 1478 1474 1471 1472 1470 1468 1466 1462 1460 1463 1455 1448 1452 1451 1452 1457 1457 1451 1446 1447 1457 1455 1452 1445 1433 1433 1427 1415 1413 1401 1381 1367 1367 1361 1353 1363 1353 1358 1361 1371 1395 1408 1404 1394 1326 1288 1255 1249 1237 1214 1201 1201 1162 1153 1146 1142 1138 1138 1135 1135 1137 1136 1133 1131 1132 1134 1130 1127 1124 1123 1123 1123 1124 1124 1122 1121 1123 1123 1121 1123 1122 1122 1119 1123 1121 1122 1121 1121 1122 1124 1121 1120 1122 1123 1123 1123 1120 1119 1119 1119 1117 1114 1114 1114 1108 1109 1113 1119 1124 1122 1119 1121 1120 1123 1124 1123 -32768 -32768
-32768 -32768 -32768 3618 3585 3559 3537 3519 3502 3502 3485 3468 3452 3453 3451 3442 3437 3427 3419 3414 3411 3409 3403 3400 3399 3398 3404 3477 3539 3557 3676 3707 3695 3676 3641 3641 3605 3601 3605 3611 3615 3623 3634 3646 3707 3754 3792 3833 3870 3905 3946 4027 4066 4100 4133 4156 4173 4177 4178 4171 4132 4132 4095 4037 4002 3974 3957 3936 3944 3976 4029 4084 4105 4108 4122 4099 4061 4006 3938 3860 3781 3641 3636 3589 3559 3537 3521 3521 3507 3504 3573 3698 3799 3824 3801 3746 3699 3610 3544 3402 3343 3310 3274 3233 3212 3200 3194 3226 3261 3318 3373 3433 3477 3477 3520 3483 3450 3424 3371 3326 3261 3265 3289 3343 3388 3443 3475 3455 3445 3420 3394 3347 3318 3277 3241 3222 3225 3199 3199 3051 3033 2987 2908 2846 2795 2737 2726 2741 2714 2674 2619 2575 2535 2501 2435 2394 2343 2302 2261 2224 2179 2133 2044 2027 2027 2020 2011 2002 1994 1987 1980 1963 1958 1949 1941 1933 1924 1916 1899 1891 1885 1878 1869 1864 1857 1850 1837 1830 1826 1819 1819 1813 1806 1797 1779 1775 1768 1761 1754 1746 1740 1735 1719 1715 1709 1701 1698 1688 1681 1676 1669 1665 1664 1661 1653 1649 1649 1647 1637 1632 1630 1627 1620 1619 1619 1616 1611 1607 1605 1602 1601 1598 1590 1584 1575 1574 1572 1568 1565 1564 1560 1556 1556 1552 1550 1546 1543 1540 1539 1533 1527 1522 1519 1512 1510 1513 1513 1502 1503 1502 1500 1494 1493 1487 1485 1482 1481 1476 1476 1478 1477 1474 1472 1470 1465 1463 1460 1460 1459 1455 1452 1446 1446 1447 1450 1451 1449 1444 1441 1443 1441 1434 1433 1443 1443 1427 1415 1413 1401 1381 1367 1367 1361 1361 1384 1411 1416 1413 1407 1398 1385 1369 1346 1303 1300 1279 1242 1216 1205 1205 1184 1163 1157 1148 1143 1139 1139 1135 1136 1138 1134 1132 1134 1132 1132 1131 1129 1127 1125 1123 1123 1123 1124 1124 1121 1121 1120 1121 1123 1125 1124 1129 1128 1122 1119 1118 1122 1120 1120 1120 1121 1121 1121 1121 1125 1123 1121 1121 1120 1120 1122 1122 1117 1108 1107 1109 1116 1126 1120 1117 1121 1120 1122 1122 -32768 -32768 -32768
-32768 -32768 -32768 3577 3554 3532 3513 3495 3489 3489 3475 3462 3451 3448 3445 3438 3429 3422 3417 3410 3411 3407 3404 3401 3396 3397 3405 3462 3523 3556 3648 3665 3660 3631 3610 3610 3599 3603 3610 3614 3620 3631 3636 3680 3725 3761 3797 3836 3877 3918 3960 4044 4084 4122 4151 4162 4164 4163 4165 4121 4121 4081 4045 3995 3947 3882 3833 3824 3883 3929 3991 4043 4069 4107 4142 4092 4058 4035 3940 3864 3786 3616 3621 3587 3571 3563 3563 3551 3533 3530 3622 3745 3843 3843 3792 3739 3673 3590 3544 3378 3333 3312 3271 3230 3201 3198 3222 3246 3293 3362 3400 3462 3462 3510 3549 3526 3493 3476 3473 3386 3327 3331 3366 3396 3444 3488 3525 3549 3537 3481 3360 3293 3261 3237 3205 3175 3195 3131 3131 3038 3014 2949 2882 2844 2805 2781 2775 2768 2715 2665 2616 2566 2520 2491 2432 2399 2354 2331 2302 2258 2196 2137 2057 2040 2040 2031 2021 2014 2005 1995 1979 1970 1963 1953 1945 1939 1928 1920 1901 1893 1888 1882 1875 1866 1861 1854 1842 1835 1827 1821 1821 1816 1806 1796 1782 1775 1767 1760 1754 1747 1741 1733 1721 1718 1712 1702 1697 1692 1687 1682 1675 1669 1662 1659 1655 1651 1651 1650 1639 1638 1637 1632 1628 1628 1626 1620 1614 1608 1607 1604 1603 1599 1593 1587 1583 1579 1576 1571 1570 1566 1562 1558 1558 1557 1553 1547 1548 1547 1539 1533 1528 1521 1518 1519 1519 1514 1511 1504 1503 1502 1498 1498 1495 1491 1491 1485 1482 1482 1479 1478 1474 1470 1469 1468 1461 1461 1460 1458 1455 1452 1447 1443 1441 1442 1446 1446 1445 1446 1447 1431 1434 1431 1438 1438 1460 1485 1502 1483 1457 1444 1439 1434 1425 1411 1406 1413 1409 1403 1398 1390 1370 1351 1325 1276 1269 1270 1242 1209 1192 1192 1181 1165 1158 1150 1143 1139 1139 1136 1139 1137 1134 1135 1135 1133 1134 1132 1130 1129 1126 1124 1124 1125 1125 1125 1120 1120 1121 1121 1124 1126 1128 1126 1127 1122 1122 1119 1120 1119 1118 1121 1118 1120 1119 1123 1124 1120 1122 1120 1121 1124 1121 1121 1119 1109 1108 1107 1112 1120 1120 1122 1122 1121 1117 1121 -32768 -32768 -32768
-32768 -32768 -32768 3545 3531 3519 3503 3494 3494 3485 3470 3456 3452 3444 3438 3429 3425 3417 3413 3408 3407 3404 3400 3402 3397 3397 3414 3482 3565 3603 3625 3634 3611 3593 3593 3585 3594 3600 3611 3621 3631 3641 3653 3704 3736 3771 3806 3844 3886 3925 3966 4044 4082 4119 4139 4143 4137 4137 4146 4078 4078 4042 4012 3971 3885 3821 3788 3772 3822 3871 3933 3992 4041 4096 4120 4074 4048 4020 3980 3873 3799 3636 3608 3592 3584 3578 3578 3566 3552 3570 3666 3770 3839 3826 3783 3726 3664 3590 3516 3369 3325 3321 3289 3224 3212 3219 3256 3283 3353 3398 3450 3491 3491 3551 3580 3572 3560 3525 3470 3403 3383 3398 3439 3473 3499 3530 3565 3541 3530 3466 3326 3273 3247 3189 3152 3119 3115 3084 3084 2971 2933 2899 2872 2846 2844 2835 2781 2734 2687 2634 2587 2530 2478 2443 2409 2381 2354 2328 2286 2231 2181 2128 2066 2054 2054 2043 2033 2023 2013 2005 1986 1976 1967 1958 1950 1942 1930 1924 1907 1896 1892 1888 1880 1871 1865 1858 1846 1835 1829 1829 1820 1814 1807 1798 1784 1776 1769 1761 1753 1747 1741 1732 1723 1719 1713 1706 1701 1697 1690 1681 1676 1671 1667 1661 1657 1657 1656 1653 1647 1643 1639 1638 1635 1632 1629 1627 1619 1616 1611 1611 1605 1600 1596 1593 1589 1586 1581 1577 1576 1570 1568 1568 1562 1561 1559 1555 1557 1552 1542 1539 1530 1527 1527 1524 1519 1513 1514 1508 1507 1506 1502 1502 1499 1495 1493 1487 1481 1481 1478 1480 1477 1473 1469 1462 1459 1457 1454 1455 1457 1458 1451 1442 1436 1438 1443 1445 1443 1445 1451 1441 1434 1436 1446 1446 1466 1494 1519 1519 1499 1491 1475 1466 1451 1430 1422 1402 1389 1383 1368 1357 1343 1331 1317 1292 1260 1246 1225 1204 1195 1195 1186 1164 1156 1150 1146 1140 1138 1138 1138 1134 1132 1133 1137 1134 1132 1131 1132 1130 1130 1126 1126 1126 1127 1123 1125 1125 1121 1123 1124 1124 1126 1125 1124 1122 1122 1121 1120 1119 1120 1120 1122 1124 1122 1122 1122 1120 1120 1120 1123 1122 1122 1119 1114 1109 1108 1106 1110 1120 1122 1121 1120 1122 1119 1122 -32768 -32768 -32768
-32768 -32768 -32768 3536 3529 3521 3507 3495 3495 3488 3472 3458 3443 3440 3431 3419 3410 3403 3396 3392 3391 3400 3397 3398 3399 3402 3414 3494 3549 3592 3601 3584 3562 3557 3557 3554 3575 3590 3599 3610 3627 3647 3671 3726 3758 3790 3822 3859 3894 3929 3969 4040 4070 4087 4096 4096 4095 4103 4093 4040 4040 4006 3984 3946 3873 3792 3760 3739 3774 3825 3849 3948 4022 4072 4084 4043 4010 3983 3948 3898 3821 3646 3614 3605 3595 3595 3588 3581 3587 3706 3746 3745 3732 3722 3684 3650 3650 3564 3474 3360 3332 3333 3306 3241 3247 3263 3303 3371 3411 3442 3492 3492 3527 3573 3597 3609 3587 3525 3476 3449 3462 3488 3522 3534 3566 3570 3540 3514 3445 3392 3280 3222 3171 3125 3084 3047 3012 3012 2976 2903 2871 2846 2828 2816 2874 2831 2735 2687 2642 2587 2540 2478 2435 2397 2352 2326 2308 2283 2248 2204 2156 2117 2074 2074 2065 2053 2039 2030 2016 2006 1987 1977 1969 1959 1950 1943 1932 1926 1910 1903 1894 1888 1880 1870 1863 1847 1842 1835 1826 1826 1818 1811 1802 1796 1783 1777 1768 1760 1755 1749 1741 1734 1723 1717 1712 1705 1702 1697 1693 1684 1680 1675 1672 1670 1665 1665 1660 1659 1652 1650 1649 1644 1641 1638 1635 1632 1624 1621 1617 1611 1606 1605 1601 1596 1591 1589 1587 1582 1578 1573 1572 1572 1569 1564 1559 1558 1555 1548 1546 1540 1538 1536 1532 1529 1526 1523 1519 1508 1506 1505 1500 1499 1499 1493 1488 1487 1482 1482 1479 1475 1471 1470 1467 1462 1461 1460 1458 1451 1450 1453 1449 1441 1437 1435 1440 1442 1443 1444 1444 1443 1439 1441 1451 1451 1464 1484 1510 1559 1552 1532 1498 1465 1436 1418 1410 1390 1382 1369 1361 1365 1375 1369 1342 1312 1277 1249 1232 1223 1223 1226 1217 1176 1161 1149 1143 1139 1140 1137 1134 1135 1135 1136 1138 1135 1133 1135 1132 1131 1132 1129 1126 1124 1132 1129 1129 1123 1125 1122 1126 1126 1126 1121 1120 1125 1122 1122 1121 1120 1120 1120 1123 1125 1123 1120 1121 1120 1121 1122 1121 1120 1120 1120 1115 1107 1106 1105 1115 1119 1124 1122 1120 1123 1122 1120 -32768 -32768 -32768
-32768 -32768 -32768 3519 3514 3503 3493 3493 3481 3464 3447 3445 3435 3425 3431 3419 3410 3403 3396 3392 3391 3389 3392 3396 3400 3405 3421 3492 3533 3573 3572 3559 3547 3547 3543 3544 3555 3565 3581 3596 3615 3649 3686 3749 3782 3808 3841 3871 3907 3937 3970 4022 4033 4037 4037 4039 4050 4065 4065 4065 4018 3981 3952 3905 3852 3775 3741 3725 3741 3765 3800 3904 3968 4021 3992 3979 3967 3952 3944 3929 3916 3843 3768 3735 3642 3642 3667 3687 3750 3706 3746 3745 3732 3722 3684 3650 3589 3516 3415 3358 3355 3359 3344 3292 3304 3324 3383 3411 3476 3535 3578 3578 3584 3616 3627 3633 3621 3582 3511 3502 3522 3546 3595 3611 3604 3565 3456 3409 3382 3326 3211 3155 3103 3024 2981 2950 2931 2931 2863 2832 2805 2784 2773 2765 2756 2754 2677 2632 2589 2541 2489 2401 2358 2315 2229 2203 2189 2169 2143 2120 2102 2081 2072 2072 2057 2047 2039 2031 2016 2006 1987 1977 1969 1959 1950 1943 1937 1929 1911 1902 1894 1885 1877 1871 1863 1847 1840 1835 1825 1825 1818 1811 1803 1797 1785 1778 1773 1763 1757 1751 1744 1735 1725 1720 1715 1707 1704 1701 1698 1688 1684 1679 1680 1672 1670 1670 1671 1666 1657 1657 1653 1650 1646 1644 1643 1633 1629 1625 1622 1616 1611 1610 1606 1601 1595 1595 1591 1589 1588 1584 1584 1580 1570 1569 1566 1563 1561 1558 1553 1546 1542 1538 1532 1529 1526 1523 1519 1508 1506 1505 1500 1498 1494 1492 1489 1483 1483 1480 1478 1472 1470 1468 1467 1461 1459 1461 1456 1452 1447 1449 1447 1437 1433 1433 1435 1438 1439 1442 1444 1441 1440 1443 1443 1452 1463 1477 1505 1574 1575 1552 1518 1473 1440 1419 1406 1396 1400 1389 1378 1386 1396 1385 1347 1333 1310 1293 1268 1262 1262 1272 1262 1206 1181 1154 1151 1141 1138 1136 1135 1137 1138 1139 1137 1136 1141 1137 1137 1137 1134 1128 1124 1124 1132 1129 1129 1123 1125 1122 1126 1126 1126 1122 1122 1123 1121 1120 1120 1122 1119 1117 1124 1123 1121 1122 1121 1121 1121 1124 1118 1121 1121 1123 1115 1107 1107 1106 1115 1120 1121 1120 1119 1123 1127 1122 -32768 -32768 -32768
-32768 -32768 -32768 3509 3503 3496 3493 3493 3481 3464 3447 3445 3435 3425 3419 3411 3400 3395 3393 3386 3385 3384 3387 3393 3394 3407 3439 3506 3539 3554 3555 3543 3535 3535 3537 3541 3547 3555 3567 3579 3605 3655 3701 3772 3803 3831 3859 3892 3924 3945 3974 3981 3975 3982 3983 3988 4004 4023 4030 3991 3979 3953 3924 3878 3812 3746 3715 3700 3718 3740 3769 3823 3884 3940 3954 3942 3934 3925 3917 3908 3899 3843 3768 3735 3642 3642 3667 3687 3750 3775 3748 3699 3681 3648 3616 3586 3547 3493 3442 3401 3395 3402 3401 3378 3373 3394 3453 3498 3586 3632 3654 3654 3649 3656 3672 3655 3642 3645 3562 3556 3563 3580 3621 3609 3545 3454 3353 3307 3310 3252 3140 3088 2980 2971 2932 2899 2899 2799 2733 2708 2669 2673 2659 2648 2628 2643 2576 2541 2501 2464 2423 2366 2323 2278 2195 2186 2185 2178 2160 2120 2102 2081 2081 2072 2057 2047 2039 2031 2022 2007 1986 1976 1966 1959 1951 1946 1937 1928 1911 1901 1892 1884 1876 1872 1864 1845 1837 1832 1832 1824 1820 1812 1808 1799 1786 1779 1771 1763 1757 1753 1744 1730 1726 1720 1716 1712 1709 1705 1701 1692 1687 1686 1684 1679 1679 1677 1676 1677 1667 1664 1662 1660 1659 1654 1648 1639 1637 1634 1628 1627 1622 1619 1614 1609 1604 1600 1595 1595 1591 1583 1583 1580 1572 1569 1566 1563 1561 1558 1553 1546 1542 1538 1531 1527 1522 1518 1519 1508 1504 1500 1501 1500 1498 1493 1486 1484 1484 1480 1476 1471 1468 1468 1466 1456 1453 1453 1449 1448 1445 1442 1444 1436 1430 1431 1433 1434 1439 1440 1442 1446 1439 1440 1440 1448 1457 1473 1495 1547 1550 1540 1518 1485 1457 1434 1420 1404 1410 1398 1391 1392 1391 1388 1390 1379 1373 1381 1369 1335 1335 1328 1338 1260 1218 1181 1157 1145 1137 1140 1143 1139 1140 1142 1138 1136 1141 1137 1137 1137 1134 1128 1124 1126 1131 1129 1129 1127 1129 1128 1128 1126 1124 1124 1123 1123 1122 1124 1121 1120 1118 1120 1122 1123 1121 1123 1119 1118 1120 1123 1122 1122 1124 1125 1120 1112 1107 1107 1111 1116 1118 1118 1114 1119 1122 1122 -32768 -32768 -32768
-32768 -32768 -32768 3509 3503 3496 3496 3483 3468 3447 3437 3437 3426 3418 3410 3402 3394 3388 3388 3382 3383 3379 3382 3389 3395 3415 3449 3507 3532 3540 3539 3534 3534 3527 3532 3549 3555 3566 3566 3577 3611 3668 3714 3794 3836 3870 3906 3930 3935 3925 3903 3899 3896 3896 3898 3909 3920 3932 3932 3942 3941 3926 3906 3854 3781 3727 3700 3676 3693 3719 3749 3798 3857 3908 3954 3942 3934 3925 3917 3908 3899 3896 3822 3791 3791 3754 3771 3796 3808 3774 3722 3647 3627 3594 3570 3544 3513 3487 3447 3443 3431 3420 3414 3406 3410 3446 3528 3578 3624 3710 3710 3715 3713 3703 3696 3686 3672 3670 3640 3611 3616 3619 3551 3485 3384 3336 3257 3208 3134 3096 3015 2964 2923 2875 2835 2804 2804 2765 2710 2675 2636 2616 2609 2602 2593 2581 2541 2509 2467 2431 2387 2335 2323 2278 2195 2186 2185 2178 2160 2147 2131 2091 2091 2077 2074 2074 2069 2056 2036 2024 1989 1977 1965 1959 1953 1942 1935 1921 1909 1904 1894 1884 1876 1868 1860 1845 1839 1833 1833 1826 1823 1815 1809 1801 1786 1781 1773 1767 1760 1755 1749 1736 1733 1729 1722 1718 1714 1710 1706 1702 1700 1693 1690 1692 1692 1692 1687 1682 1673 1669 1667 1665 1660 1654 1652 1646 1645 1642 1637 1631 1628 1625 1620 1611 1606 1600 1595 1595 1591 1583 1583 1577 1572 1569 1564 1566 1563 1561 1552 1544 1540 1536 1533 1529 1526 1522 1520 1511 1507 1502 1501 1498 1495 1492 1486 1483 1483 1477 1474 1471 1468 1464 1463 1456 1454 1452 1451 1446 1443 1440 1441 1434 1427 1430 1434 1438 1438 1441 1450 1452 1465 1465 1457 1456 1451 1454 1464 1485 1493 1496 1475 1447 1425 1411 1395 1387 1382 1378 1371 1364 1362 1366 1380 1382 1383 1383 1380 1380 1364 1357 1352 1276 1238 1202 1157 1145 1137 1140 1143 1139 1140 1142 1138 1139 1134 1136 1138 1139 1137 1135 1128 1130 1131 1131 1128 1128 1125 1127 1126 1128 1124 1124 1122 1121 1122 1126 1122 1121 1122 1120 1122 1120 1123 1124 1123 1119 1120 1120 1118 1118 1119 1119 1120 1115 1107 1106 1108 1112 1120 1118 1125 1123 1124 1119 -32768 -32768 -32768
-32768 -32768 3513 3505 3499 3490 3490 3469 3455 3438 3433 3431 3420 3411 3401 3387 3385 3385 3385 3384 3383 3382 3387 3394 3409 3432 3477 3508 3524 3511 3510 3509 3509 3508 3517 3537 3552 3565 3585 3619 3662 3717 3759 3824 3850 3880 3906 3911 3902 3887 3867 3862 3860 3861 3860 3871 3876 3884 3884 3890 3891 3886 3874 3840 3753 3703 3681 3676 3693 3719 3749 3798 3857 3908 3917 3911 3903 3898 3894 3886 3883 3881 3876 3869 3869 3820 3822 3811 3777 3735 3647 3618 3600 3573 3553 3536 3515 3494 3457 3434 3425 3417 3423 3441 3476 3513 3605 3740 3789 3805 3805 3795 3777 3767 3758 3761 3773 3761 3739 3717 3682 3644 3472 3413 3323 3239 3191 3149 3101 3018 2973 2941 2906 2873 2853 2831 2831 2798 2736 2690 2657 2608 2568 2558 2593 2581 2541 2509 2467 2431 2387 2335 2286 2216 2228 2236 2229 2216 2188 2167 2148 2120 2120 2119 2107 2103 2095 2077 2064 2045 1998 1983 1974 1962 1950 1939 1932 1917 1910 1902 1892 1884 1872 1866 1861 1846 1839 1839 1831 1822 1815 1811 1802 1793 1787 1779 1773 1767 1760 1755 1751 1738 1733 1731 1725 1721 1720 1716 1713 1707 1700 1699 1701 1701 1701 1696 1690 1684 1680 1676 1673 1667 1663 1662 1658 1651 1649 1642 1637 1631 1628 1625 1620 1611 1606 1604 1601 1597 1594 1594 1589 1580 1575 1574 1574 1569 1564 1560 1553 1546 1542 1536 1531 1530 1527 1522 1517 1510 1506 1505 1500 1496 1492 1488 1485 1485 1481 1475 1473 1471 1467 1463 1457 1455 1455 1451 1447 1442 1446 1437 1428 1428 1425 1423 1425 1430 1436 1448 1481 1501 1496 1496 1471 1460 1456 1452 1460 1470 1472 1471 1458 1439 1419 1405 1387 1383 1377 1385 1389 1374 1357 1350 1357 1362 1356 1383 1380 1380 1364 1357 1352 1276 1238 1202 1168 1146 1142 1142 1142 1141 1137 1139 1142 1142 1136 1138 1137 1135 1136 1135 1132 1133 1132 1132 1132 1124 1126 1126 1126 1128 1127 1124 1126 1125 1123 1124 1123 1120 1120 1120 1121 1120 1120 1121 1124 1122 1120 1122 1120 1120 1117 1117 1119 1115 1112 1110 1108 1106 1109 1115 1123 1118 1120 1121 -32768 -32768 -32768
-32768 -32768 3508 3504 3499 3483 3483 3459 3443 3433 3430 3425 3413 3403 3377 3375 3378 3385 3387 3382 3385 3388 3392 3403 3424 3447 3496 3503 3503 3504 3503 3504 3504 3507 3512 3537 3547 3569 3606 3644 3694 3740 3808 3833 3858 3884 3895 3881 3858 3841 3834 3825 3827 3825 3829 3835 3843 3843 3844 3890 3891 3886 3874 3840 3753 3703 3666 3659 3670 3690 3720 3763 3838 3885 3885 3882 3874 3868 3869 3867 3869 3871 3885 3885 3865 3839 3804 3768 3725 3688 3636 3617 3602 3589 3561 3532 3492 3457 3418 3413 3416 3437 3462 3496 3538 3622 3672 3724 3770 3770 3815 3811 3820 3809 3802 3806 3813 3777 3719 3664 3626 3574 3428 3364 3272 3203 3151 3115 3082 3029 2977 2961 2943 2925 2912 2912 2875 2798 2736 2690 2657 2608 2568 2558 2544 2526 2495 2479 2443 2400 2354 2301 2257 2253 2262 2259 2246 2238 2245 2247 2225 2225 2174 2158 2140 2132 2123 2108 2096 2056 2028 2007 1991 1975 1961 1951 1940 1917 1906 1897 1890 1882 1874 1866 1858 1842 1838 1838 1830 1824 1814 1807 1801 1792 1786 1778 1771 1765 1761 1756 1750 1745 1741 1738 1733 1729 1726 1720 1719 1711 1705 1705 1707 1707 1701 1698 1695 1690 1685 1676 1673 1667 1663 1662 1658 1651 1649 1646 1643 1637 1633 1628 1625 1611 1611 1611 1607 1598 1598 1598 1592 1589 1581 1580 1576 1571 1565 1563 1557 1550 1543 1536 1533 1531 1528 1519 1512 1510 1507 1507 1505 1507 1503 1501 1489 1489 1478 1476 1471 1466 1462 1458 1455 1452 1449 1447 1441 1440 1438 1430 1425 1424 1424 1419 1425 1436 1440 1448 1488 1517 1510 1510 1479 1461 1456 1455 1457 1463 1460 1455 1445 1433 1420 1415 1395 1386 1377 1385 1389 1374 1357 1350 1357 1362 1356 1350 1361 1361 1358 1352 1319 1290 1268 1234 1190 1156 1147 1145 1142 1143 1137 1139 1139 1138 1139 1140 1139 1140 1140 1138 1137 1133 1132 1132 1129 1130 1128 1129 1128 1126 1128 1128 1125 1125 1123 1122 1121 1120 1120 1121 1120 1119 1118 1118 1120 1124 1124 1123 1123 1118 1122 1120 1121 1118 1113 1113 1108 1106 1106 1108 1117 1121 1121 1123 -32768 -32768 -32768
-32768 -32768 3487 3475 3456 3456 3441 3433 3424 3419 3418 3407 3393 3379 3367 3366 3376 3384 3384 3384 3388 3394 3399 3411 3427 3445 3488 3502 3506 3511 3515 3515 3519 3525 3526 3549 3568 3596 3633 3679 3724 3756 3819 3842 3863 3869 3861 3840 3802 3785 3794 3825 3827 3825 3829 3835 3843 3843 3844 3847 3844 3844 3841 3828 3744 3687 3654 3645 3646 3663 3684 3724 3787 3842 3855 3853 3850 3817 3824 3836 3845 3867 3854 3854 3797 3496 3698 3695 3679 3676 3649 3623 3600 3586 3564 3521 3478 3439 3416 3416 3423 3454 3479 3507 3548 3651 3697 3749 3795 3795 3825 3848 3863 3862 3840 3819 3778 3722 3650 3604 3551 3496 3375 3295 3225 3177 3129 3102 3082 3029 2977 2961 2943 2925 2912 2912 2875 2831 2731 2695 2669 2625 2573 2532 2509 2482 2442 2423 2393 2362 2319 2276 2264 2294 2310 2289 2288 2332 2388 2385 2342 2342 2291 2269 2240 2216 2198 2183 2158 2099 2077 2045 2015 2002 1991 1975 1954 1926 1911 1899 1892 1883 1873 1865 1857 1839 1835 1835 1827 1822 1815 1809 1801 1792 1783 1778 1773 1771 1764 1759 1754 1750 1746 1742 1741 1739 1731 1725 1724 1719 1705 1705 1707 1707 1701 1698 1695 1690 1685 1683 1676 1672 1669 1666 1662 1653 1651 1649 1648 1642 1638 1632 1624 1618 1616 1611 1610 1606 1601 1601 1601 1594 1589 1584 1581 1575 1567 1560 1555 1545 1540 1536 1531 1527 1524 1521 1515 1514 1510 1511 1511 1516 1521 1513 1513 1494 1489 1480 1470 1465 1460 1457 1453 1449 1449 1444 1441 1438 1435 1435 1427 1419 1419 1417 1424 1434 1439 1447 1472 1494 1494 1489 1467 1454 1448 1449 1457 1459 1460 1455 1445 1433 1420 1415 1395 1386 1383 1389 1394 1385 1377 1361 1337 1336 1328 1324 1324 1333 1322 1318 1298 1280 1273 1258 1216 1173 1154 1158 1146 1147 1146 1146 1146 1142 1141 1142 1139 1138 1139 1140 1138 1135 1135 1133 1130 1129 1126 1129 1132 1128 1129 1128 1127 1126 1126 1126 1125 1121 1121 1121 1122 1123 1120 1121 1123 1124 1121 1123 1123 1121 1126 1123 1121 1119 1117 1113 1107 1109 1106 1105 1115 1125 1123 1123 -32768 -32768 -32768
-32768 -32768 3478 3465 3452 3452 3438 3427 3416 3409 3408 3387 3375 3363 3355 3357 3370 3380 3379 3387 3394 3405 3415 3429 3444 3460 3499 3515 3522 3524 3525 3525 3527 3532 3536 3561 3588 3625 3670 3709 3747 3775 3820 3840 3863 3869 3861 3840 3802 3785 3794 3792 3790 3790 3799 3803 3810 3810 3805 3797 3794 3795 3738 3728 3702 3663 3624 3600 3594 3598 3606 3613 3637 3665 3747 3760 3761 3762 3787 3810 3824 3851 3857 3857 3804 3758 3727 3703 3694 3672 3629 3612 3600 3586 3555 3522 3492 3455 3434 3432 3440 3467 3493 3525 3560 3656 3710 3759 3759 3806 3861 3896 3918 3913 3831 3773 3719 3656 3605 3552 3498 3496 3375 3295 3225 3177 3129 3102 3076 3039 3036 3035 3022 2984 2984 2933 2877 2828 2741 2714 2688 2651 2611 2570 2534 2470 2441 2428 2417 2395 2372 2367 2365 2340 2329 2302 2318 2362 2437 2412 2412 2394 2374 2328 2283 2274 2256 2238 2224 2164 2137 2102 2068 2045 2021 1995 1967 1943 1928 1907 1892 1885 1873 1863 1856 1842 1842 1835 1829 1823 1813 1808 1803 1793 1785 1781 1775 1769 1763 1761 1762 1757 1746 1742 1741 1739 1731 1725 1721 1719 1716 1713 1713 1710 1708 1705 1701 1694 1689 1686 1682 1682 1682 1679 1674 1664 1661 1657 1653 1645 1640 1635 1631 1625 1619 1614 1610 1607 1607 1606 1605 1611 1597 1590 1579 1569 1561 1556 1554 1548 1544 1535 1532 1531 1526 1527 1522 1518 1516 1516 1519 1529 1523 1505 1505 1492 1487 1480 1473 1467 1465 1460 1447 1444 1446 1447 1444 1442 1442 1440 1423 1418 1418 1416 1421 1425 1434 1437 1472 1494 1494 1489 1467 1454 1448 1449 1457 1459 1457 1453 1449 1453 1447 1434 1399 1393 1397 1397 1405 1409 1424 1401 1362 1370 1359 1339 1339 1314 1298 1295 1253 1236 1216 1207 1197 1181 1167 1159 1149 1147 1145 1146 1144 1143 1143 1141 1140 1141 1137 1138 1137 1134 1134 1134 1126 1127 1131 1130 1130 1132 1126 1125 1126 1127 1125 1124 1122 1121 1119 1123 1121 1121 1119 1118 1121 1121 1121 1119 1119 1121 1122 1120 1121 1122 1118 1116 1109 1107 1106 1106 1116 1125 1123 1123 -32768 -32768 -32768
-32768 -32768 3478 3468 3468 3451 3429 3416 3404 3395 3386 3370 3358 3350 3349 3357 3368 3371 3375 3387 3397 3410 3424 3442 3464 3485 3515 3521 3520 3517 3517 3517 3519 3532 3550 3573 3609 3625 3670 3709 3747 3775 3820 3840 3846 3837 3824 3753 3692 3667 3689 3716 3728 3740 3748 3738 3738 3708 3683 3678 3665 3660 3664 3672 3664 3640 3600 3573 3556 3550 3557 3568 3578 3594 3644 3672 3691 3705 3718 3751 3788 3848 3848 3833 3809 3747 3721 3692 3667 3644 3605 3596 3584 3570 3547 3522 3504 3478 3465 3450 3461 3487 3509 3549 3585 3683 3733 3785 3785 3834 3888 3931 3930 3912 3831 3773 3719 3656 3605 3552 3498 3367 3310 3247 3220 3205 3201 3214 3210 3157 3100 3049 2996 2942 2942 2894 2848 2804 2736 2709 2686 2672 2653 2617 2579 2520 2494 2473 2459 2446 2432 2416 2381 2350 2334 2319 2347 2390 2424 2447 2447 2464 2403 2358 2338 2337 2306 2290 2284 2223 2183 2147 2120 2086 2052 2017 1993 1959 1937 1914 1897 1885 1873 1869 1853 1846 1846 1838 1828 1821 1814 1806 1804 1793 1785 1781 1775 1769 1763 1761 1762 1757 1752 1754 1753 1746 1744 1740 1733 1731 1729 1726 1726 1721 1721 1717 1711 1702 1698 1694 1691 1690 1688 1681 1677 1669 1664 1659 1653 1649 1643 1641 1632 1628 1622 1618 1615 1615 1615 1614 1620 1633 1616 1594 1577 1566 1563 1560 1556 1557 1552 1552 1541 1538 1535 1532 1530 1527 1523 1526 1525 1522 1514 1506 1506 1491 1487 1479 1478 1470 1463 1461 1449 1442 1442 1444 1444 1442 1441 1435 1423 1418 1418 1416 1421 1425 1434 1437 1462 1455 1455 1446 1444 1428 1434 1434 1452 1466 1474 1471 1469 1473 1467 1448 1444 1434 1422 1417 1417 1410 1406 1380 1385 1375 1356 1350 1350 1341 1336 1336 1300 1287 1263 1237 1203 1184 1175 1163 1150 1149 1146 1145 1145 1144 1146 1144 1143 1142 1140 1135 1137 1136 1136 1135 1129 1130 1132 1131 1131 1130 1128 1129 1130 1128 1125 1123 1123 1121 1121 1121 1122 1120 1120 1118 1119 1117 1117 1117 1116 1121 1124 1121 1120 1122 1118 1116 1109 1107 1106 1106 1116 1125 1123 1120 -32768 -32768 -32768
-32768 -32768 3454 3446 3446 3431 3412 3398 3390 3387 3370 3356 3347 3347 3348 3355 3364 3363 3376 3387 3396 3408 3427 3447 3464 3481 3499 3507 3508 3504 3504 3517 3512 3524 3555 3591 3630 3671 3705 3737 3765 3792 3803 3789 3776 3763 3745 3712 3677 3648 3655 3673 3685 3674 3639 3629 3629 3627 3622 3614 3603 3600 3608 3620 3617 3607 3567 3543 3528 3527 3522 3527 3530 3549 3562 3583 3607 3631 3652 3691 3734 3845 3845 3829 3824 3793 3717 3668 3638 3622 3602 3595 3578 3562 3543 3535 3529 3506 3492 3476 3480 3503 3541 3572 3615 3701 3733 3785 3785 3834 3912 3939 3915 3886 3796 3731 3653 3582 3525 3483 3434 3360 3311 3314 3324 3330 3306 3256 3209 3110 3053 3006 2961 2918 2918 2868 2832 2774 2755 2745 2737 2705 2670 2636 2604 2546 2523 2514 2517 2509 2488 2443 2389 2364 2344 2342 2362 2426 2466 2493 2493 2520 2451 2406 2411 2395 2353 2345 2336 2261 2217 2181 2147 2113 2078 2046 2018 1964 1938 1917 1903 1887 1876 1870 1852 1847 1847 1840 1830 1822 1817 1811 1805 1793 1790 1789 1783 1782 1779 1773 1771 1769 1765 1761 1758 1756 1754 1747 1742 1738 1735 1735 1731 1727 1724 1720 1716 1708 1704 1700 1695 1694 1689 1683 1675 1671 1666 1661 1658 1654 1647 1642 1635 1630 1628 1623 1620 1620 1621 1624 1636 1648 1627 1597 1582 1575 1568 1566 1564 1567 1574 1568 1555 1546 1544 1538 1537 1536 1532 1530 1520 1513 1506 1506 1500 1484 1479 1476 1474 1470 1463 1457 1449 1442 1442 1444 1434 1434 1432 1432 1419 1417 1415 1417 1412 1410 1417 1424 1433 1433 1451 1449 1424 1419 1425 1420 1439 1458 1480 1490 1467 1449 1441 1438 1447 1440 1423 1409 1412 1410 1406 1397 1397 1387 1388 1388 1389 1374 1374 1373 1351 1340 1311 1276 1235 1206 1203 1185 1153 1150 1150 1149 1147 1146 1147 1143 1141 1140 1138 1133 1135 1135 1137 1132 1131 1132 1131 1130 1128 1131 1130 1129 1128 1127 1125 1124 1123 1123 1122 1120 1120 1118 1121 1118 1119 1120 1118 1118 1117 1116 1117 1119 1121 1116 1115 1111 1107 1108 1105 1108 1116 1122 1120 1121 -32768 -32768 -32768
-32768 -32768 3418 3418 3406 3398 3386 3379 3377 3376 3359 3348 3343 3342 3346 3355 3360 3359 3370 3381 3388 3408 3428 3445 3462 3476 3485 3494 3495 3495 3491 3492 3497 3508 3565 3607 3641 3685 3711 3737 3761 3776 3767 3754 3740 3727 3711 3690 3666 3634 3621 3619 3624 3612 3594 3594 3580 3575 3573 3561 3558 3562 3569 3578 3574 3565 3533 3516 3510 3505 3505 3506 3507 3513 3516 3526 3542 3565 3601 3639 3679 3679 3786 3821 3841 3826 3786 3659 3645 3632 3619 3608 3589 3575 3579 3569 3559 3514 3496 3496 3506 3533 3577 3606 3648 3730 3791 3791 3840 3888 3925 3916 3896 3840 3789 3732 3655 3568 3530 3493 3460 3410 3424 3415 3393 3348 3292 3217 3161 3069 3036 2996 2952 2952 2925 2892 2844 2803 2813 2796 2762 2726 2700 2675 2632 2600 2590 2585 2571 2529 2488 2438 2400 2378 2363 2373 2392 2466 2511 2511 2593 2550 2490 2458 2468 2444 2409 2407 2389 2302 2263 2218 2171 2125 2085 2059 1991 1962 1940 1917 1903 1891 1880 1874 1858 1858 1853 1842 1833 1826 1820 1814 1806 1799 1800 1795 1791 1787 1786 1784 1780 1779 1773 1766 1765 1762 1760 1752 1747 1745 1742 1742 1740 1734 1730 1725 1723 1716 1711 1706 1700 1696 1692 1688 1676 1668 1664 1664 1658 1656 1648 1646 1639 1636 1631 1627 1625 1625 1628 1635 1654 1660 1634 1625 1611 1587 1576 1571 1571 1581 1590 1580 1565 1556 1554 1553 1548 1555 1550 1525 1510 1505 1498 1498 1487 1483 1479 1481 1477 1470 1459 1452 1442 1439 1436 1433 1430 1429 1426 1425 1422 1421 1417 1414 1408 1404 1408 1411 1421 1421 1435 1436 1414 1414 1417 1405 1418 1430 1458 1485 1466 1434 1414 1408 1428 1429 1411 1394 1392 1406 1416 1409 1412 1405 1402 1402 1396 1392 1396 1398 1370 1358 1329 1284 1254 1248 1241 1219 1171 1156 1152 1153 1150 1149 1146 1144 1143 1141 1141 1140 1141 1141 1134 1133 1132 1134 1132 1132 1134 1131 1131 1127 1127 1126 1125 1125 1125 1124 1123 1121 1121 1120 1120 1123 1118 1119 1119 1119 1120 1120 1118 1115 1118 1121 1119 1109 1107 1107 1106 1113 1119 1119 1124 1121 -32768 -32768 -32768
-32768 -32768 3384 3384 3373 3371 3367 3366 3367 3365 3348 3340 3341 3341 3348 3353 3354 3351 3362 3373 3386 3410 3434 3450 3463 3476 3478 3481 3482 3482 3483 3487 3494 3504 3577 3618 3652 3692 3717 3737 3748 3748 3722 3710 3700 3685 3668 3654 3634 3597 3583 3574 3572 3568 3561 3561 3551 3548 3536 3532 3535 3545 3550 3551 3540 3527 3507 3498 3498 3498 3498 3498 3498 3498 3498 3500 3509 3526 3552 3602 3608 3608 3695 3772 3834 3851 3829 3651 3664 3648 3665 3651 3640 3623 3620 3585 3549 3504 3508 3519 3541 3581 3615 3647 3694 3768 3812 3812 3869 3909 3913 3891 3876 3830 3791 3736 3693 3626 3602 3556 3562 3510 3459 3412 3361 3305 3262 3203 3164 3084 3074 3047 3010 3010 2968 2913 2870 2841 2852 2831 2806 2787 2759 2715 2667 2669 2667 2643 2593 2547 2499 2457 2420 2390 2388 2406 2434 2568 2628 2628 2638 2595 2587 2516 2520 2496 2482 2477 2438 2353 2301 2246 2188 2146 2115 2083 2004 1975 1950 1926 1911 1898 1888 1879 1861 1861 1852 1842 1840 1828 1821 1815 1810 1803 1799 1797 1794 1793 1791 1789 1786 1784 1777 1776 1774 1767 1762 1761 1755 1752 1749 1749 1745 1739 1736 1729 1726 1719 1714 1709 1704 1699 1695 1691 1683 1678 1673 1668 1662 1657 1654 1653 1641 1639 1636 1631 1629 1629 1630 1640 1666 1638 1633 1627 1614 1594 1586 1577 1584 1598 1599 1581 1572 1567 1562 1564 1574 1581 1568 1529 1513 1512 1503 1503 1495 1491 1489 1486 1478 1471 1459 1455 1447 1442 1438 1434 1429 1428 1426 1420 1423 1419 1413 1410 1410 1401 1402 1406 1408 1408 1414 1406 1397 1408 1401 1389 1391 1404 1423 1443 1441 1414 1398 1391 1410 1410 1396 1379 1377 1398 1421 1412 1391 1385 1382 1382 1376 1385 1402 1394 1367 1349 1332 1321 1302 1291 1278 1228 1197 1165 1154 1159 1149 1151 1151 1145 1147 1145 1136 1136 1136 1139 1132 1135 1135 1134 1135 1135 1135 1131 1128 1130 1129 1126 1127 1128 1127 1125 1127 1120 1123 1123 1122 1122 1121 1118 1118 1118 1117 1119 1118 1119 1119 1122 1114 1106 1106 1106 1107 1119 1121 1120 1122 1119 -32768 -32768 -32768
-32768 -32768 -32768 3384 3373 3371 3367 3366 3367 3358 3341 3337 3341 3345 3350 3350 3350 3349 3362 3371 3391 3415 3440 3455 3468 3479 3478 3474 3474 3478 3484 3491 3498 3515 3582 3626 3664 3697 3720 3730 3722 3686 3674 3659 3643 3629 3614 3594 3578 3555 3541 3535 3534 3531 3531 3533 3529 3521 3520 3520 3528 3532 3530 3524 3513 3502 3502 3500 3501 3498 3498 3498 3498 3498 3498 3498 3498 3504 3519 3560 3560 3608 3695 3772 3825 3861 3867 3847 3812 3732 3743 3699 3668 3628 3594 3555 3529 3499 3512 3532 3561 3598 3639 3691 3738 3807 3807 3845 3904 3928 3918 3897 3876 3833 3794 3742 3711 3695 3677 3665 3639 3527 3460 3410 3359 3312 3288 3259 3179 3149 3125 3088 3088 3030 2974 2934 2903 2882 2885 2880 2873 2858 2839 2788 2774 2796 2747 2681 2627 2581 2528 2492 2439 2441 2424 2453 2502 2568 2568 2628 2638 2595 2587 2601 2595 2557 2569 2548 2478 2364 2305 2259 2230 2199 2148 2106 2021 1985 1954 1935 1920 1907 1896 1885 1885 1865 1855 1847 1842 1832 1826 1821 1818 1811 1809 1805 1802 1800 1797 1796 1790 1791 1786 1782 1779 1774 1767 1766 1760 1756 1756 1752 1748 1743 1738 1732 1726 1722 1717 1714 1710 1704 1698 1695 1688 1680 1675 1673 1672 1669 1663 1659 1653 1649 1646 1642 1642 1639 1633 1635 1641 1638 1633 1627 1614 1594 1589 1587 1598 1608 1599 1587 1583 1575 1571 1585 1596 1580 1561 1547 1533 1523 1523 1512 1502 1500 1496 1485 1474 1472 1467 1463 1444 1441 1441 1435 1428 1422 1422 1419 1416 1412 1411 1407 1404 1399 1394 1399 1399 1398 1400 1398 1391 1385 1384 1379 1381 1378 1384 1394 1397 1388 1381 1373 1384 1396 1388 1369 1360 1377 1409 1397 1370 1353 1353 1344 1347 1361 1366 1362 1387 1387 1373 1360 1341 1312 1282 1237 1203 1173 1162 1159 1149 1151 1151 1145 1145 1145 1141 1141 1141 1142 1137 1136 1136 1138 1138 1137 1135 1132 1130 1131 1128 1124 1126 1127 1124 1123 1123 1122 1123 1121 1120 1121 1122 1120 1120 1115 1112 1117 1121 1121 1117 1120 1114 1105 1105 1108 1115 1119 1122 1123 1121 1120 -32768 -32768 -32768
-32768 -32768 -32768 3376 3373 3369 3367 3366 3361 3350 3338 3340 3344 3345 3348 3348 3347 3357 3367 3378 3395 3417 3436 3449 3459 3471 3471 3476 3476 3482 3489 3503 3514 3534 3591 3625 3666 3694 3705 3698 3679 3633 3613 3589 3579 3562 3547 3537 3526 3515 3498 3500 3502 3505 3505 3507 3509 3511 3509 3507 3502 3502 3502 3498 3502 3497 3498 3502 3505 3498 3498 3498 3498 3498 3498 3498 3498 3498 3506 3533 3533 3611 3663 3713 3807 3884 3936 3895 3866 3772 3718 3678 3652 3621 3576 3545 3533 3511 3517 3545 3583 3617 3672 3721 3823 3854 3854 3889 3924 3949 3932 3903 3886 3827 3796 3774 3760 3748 3734 3711 3658 3548 3495 3422 3398 3370 3350 3350 3259 3209 3129 3064 3064 3038 2998 2972 2962 2991 3022 3007 2957 2906 2880 2865 2855 2799 2751 2681 2627 2581 2528 2492 2439 2441 2460 2491 2547 2614 2614 2658 2696 2656 2662 2678 2682 2694 2659 2546 2420 2365 2316 2309 2280 2226 2182 2131 2039 2001 1969 1947 1933 1920 1906 1890 1890 1870 1859 1849 1843 1835 1827 1826 1820 1816 1815 1813 1809 1809 1808 1805 1800 1797 1793 1788 1782 1777 1774 1778 1770 1766 1766 1764 1759 1754 1750 1745 1738 1733 1725 1718 1713 1708 1704 1698 1692 1684 1680 1677 1675 1669 1663 1659 1653 1649 1646 1642 1642 1639 1635 1632 1627 1621 1617 1614 1608 1612 1607 1605 1600 1605 1603 1594 1592 1593 1601 1621 1604 1577 1564 1569 1576 1563 1563 1529 1512 1503 1498 1490 1478 1474 1469 1458 1443 1439 1435 1430 1425 1419 1419 1413 1406 1405 1407 1404 1399 1399 1396 1391 1391 1386 1387 1394 1390 1381 1373 1374 1351 1350 1352 1350 1343 1349 1340 1334 1341 1350 1349 1340 1348 1373 1386 1368 1358 1347 1347 1336 1333 1337 1366 1362 1387 1387 1373 1360 1341 1312 1282 1234 1210 1182 1165 1160 1155 1152 1149 1149 1147 1145 1144 1143 1143 1141 1135 1134 1136 1139 1137 1136 1133 1130 1131 1130 1129 1128 1127 1125 1123 1122 1124 1125 1124 1120 1120 1122 1120 1120 1120 1115 1114 1117 1119 1118 1117 1115 1106 1105 1107 1110 1119 1123 1119 1121 1123 1121 -32768 -32768 -32768
-32768 -32768 -32768 3364 3364 3367 3368 3359 3352 3343 3335 3338 3342 3343 3344 3345 3352 3363 3371 3382 3398 3410 3424 3439 3452 3461 3466 3477 3477 3488 3503 3511 3523 3545 3590 3589 3592 3589 3585 3581 3566 3530 3516 3502 3483 3469 3468 3471 3476 3487 3489 3489 3490 3493 3493 3502 3507 3515 3515 3508 3501 3499 3502 3498 3502 3497 3498 3502 3505 3503 3502 3499 3498 3498 3498 3498 3498 3498 3498 3517 3517 3582 3621 3677 3767 3844 3911 3935 3894 3796 3692 3679 3645 3596 3569 3560 3558 3536 3530 3568 3604 3653 3700 3747 3849 3888 3888 3926 3958 3975 3951 3918 3878 3817 3796 3773 3763 3762 3746 3732 3668 3646 3594 3558 3508 3460 3421 3358 3238 3166 3112 3085 3085 3043 3006 2982 2979 3048 3058 3007 2957 2906 2880 2865 2833 2799 2751 2699 2650 2598 2559 2527 2459 2468 2495 2532 2582 2644 2644 2695 2720 2722 2731 2751 2739 2700 2633 2543 2433 2395 2393 2362 2303 2252 2211 2154 2054 2016 1988 1969 1952 1931 1915 1898 1898 1875 1865 1857 1847 1842 1845 1841 1834 1830 1833 1827 1826 1824 1821 1818 1809 1803 1801 1798 1797 1792 1789 1777 1776 1774 1774 1768 1763 1757 1754 1749 1739 1734 1730 1723 1715 1708 1704 1698 1692 1684 1680 1677 1675 1673 1667 1659 1656 1654 1650 1647 1647 1641 1637 1634 1629 1630 1631 1624 1622 1633 1635 1628 1612 1612 1612 1606 1611 1630 1643 1643 1626 1599 1592 1605 1608 1586 1586 1551 1551 1521 1504 1490 1480 1470 1460 1450 1443 1436 1434 1436 1434 1424 1421 1420 1419 1412 1408 1406 1406 1403 1400 1400 1393 1387 1381 1382 1381 1387 1381 1377 1378 1379 1391 1383 1360 1352 1350 1319 1327 1332 1325 1327 1347 1373 1386 1368 1358 1358 1347 1336 1333 1337 1339 1356 1369 1377 1354 1334 1316 1293 1267 1226 1215 1191 1167 1162 1162 1159 1153 1153 1151 1147 1140 1140 1140 1139 1134 1135 1136 1136 1133 1132 1134 1131 1131 1131 1132 1129 1128 1127 1124 1124 1123 1122 1121 1122 1120 1122 1121 1121 1119 1119 1116 1119 1117 1116 1115 1111 1106 1103 1106 1114 1117 1119 1119 1124 1120 1123 -32768 -32768 -32768
-32768 -32768 -32768 3351 3358 3364 3361 3351 3342 3336 3335 3339 3341 3341 3346 3353 3362 3375 3380 3388 3408 3419 3435 3447 3452 3455 3458 3458 3463 3471 3479 3490 3497 3518 3525 3525 3524 3530 3529 3525 3522 3506 3495 3488 3472 3464 3463 3467 3476 3489 3480 3483 3481 3481 3482 3502 3507 3515 3515 3508 3501 3499 3497 3498 3499 3500 3501 3507 3511 3511 3510 3506 3507 3499 3498 3498 3498 3498 3498 3498 3508 3563 3604 3699 3739 3792 3858 3892 3887 3811 3683 3661 3616 3585 3569 3578 3573 3588 3599 3629 3666 3695 3768 3825 3926 3926 3973 4021 4023 3980 3937 3889 3854 3793 3767 3749 3734 3730 3718 3697 3659 3630 3605 3568 3513 3442 3372 3309 3178 3142 3118 3118 3085 3043 3006 2982 2979 3048 3058 3041 2988 2994 2970 2925 2837 2785 2737 2695 2647 2611 2586 2552 2488 2503 2529 2570 2615 2615 2675 2732 2775 2802 2806 2781 2723 2669 2610 2551 2463 2457 2429 2370 2318 2269 2216 2160 2099 2072 2039 1998 1968 1954 1939 1939 1907 1897 1885 1871 1861 1852 1850 1846 1843 1841 1840 1837 1834 1831 1827 1824 1814 1809 1808 1805 1800 1796 1790 1785 1782 1782 1775 1770 1770 1757 1754 1749 1739 1734 1730 1723 1715 1710 1706 1703 1692 1689 1687 1684 1680 1676 1672 1666 1659 1656 1653 1653 1649 1642 1638 1635 1632 1635 1636 1635 1643 1658 1663 1650 1624 1623 1627 1628 1646 1663 1660 1636 1623 1620 1620 1608 1595 1595 1548 1529 1523 1494 1474 1463 1457 1452 1451 1447 1443 1441 1438 1435 1428 1421 1422 1413 1412 1408 1405 1405 1402 1403 1401 1401 1390 1385 1383 1389 1390 1384 1386 1384 1379 1383 1382 1378 1360 1352 1350 1319 1327 1332 1325 1327 1347 1359 1362 1367 1367 1367 1362 1356 1338 1320 1317 1338 1353 1359 1330 1295 1275 1263 1248 1219 1207 1190 1174 1168 1163 1159 1156 1150 1151 1149 1145 1145 1142 1142 1139 1134 1136 1134 1133 1136 1134 1131 1129 1133 1132 1131 1129 1128 1128 1128 1126 1126 1125 1124 1123 1122 1120 1120 1120 1118 1118 1118 1120 1122 1118 1116 1105 1103 1108 1113 1117 1120 1120 1120 1122 1122 -32768 -32768 -32768
-32768 -32768 -32768 3343 3350 3344 3337 3331 3329 3324 3328 3337 3343 3351 3360 3369 3377 3399 3409 3417 3427 3436 3445 3454 3461 3457 3459 3459 3458 3458 3464 3471 3476 3477 3481 3484 3491 3502 3503 3501 3496 3488 3481 3472 3465 3455 3454 3467 3476 3489 3480 3483 3481 3481 3482 3500 3511 3518 3511 3505 3498 3495 3495 3499 3502 3506 3509 3516 3521 3523 3524 3523 3516 3511 3504 3498 3498 3498 3494 3494 3501 3588 3674 3660 3691 3726 3754 3785 3833 3896 3709 3652 3645 3626 3612 3609 3613 3615 3626 3656 3688 3761 3820 3882 3997 3997 4030 4042 4019 3971 3920 3873 3831 3743 3720 3709 3700 3696 3689 3673 3631 3609 3586 3568 3513 3442 3372 3309 3178 3142 3118 3118 3079 3054 3039 3025 3029 3145 3151 3130 3036 3004 2955 2910 2831 2791 2744 2711 2680 2643 2613 2584 2520 2546 2574 2618 2668 2668 2740 2789 2884 2863 2829 2798 2751 2708 2657 2594 2495 2441 2389 2342 2300 2256 2216 2183 2123 2094 2057 2013 1986 1973 1959 1959 1925 1911 1894 1879 1866 1861 1856 1853 1851 1849 1847 1843 1837 1835 1831 1828 1823 1820 1816 1812 1808 1796 1790 1785 1782 1782 1775 1770 1770 1765 1759 1755 1742 1736 1732 1725 1719 1716 1709 1707 1698 1696 1689 1684 1682 1678 1675 1666 1663 1659 1652 1652 1648 1647 1645 1638 1644 1649 1649 1652 1681 1680 1668 1644 1639 1634 1638 1643 1637 1623 1610 1596 1590 1578 1564 1560 1557 1557 1541 1526 1514 1496 1480 1476 1472 1464 1456 1449 1446 1443 1438 1433 1432 1426 1423 1413 1409 1405 1404 1404 1399 1396 1394 1394 1391 1388 1390 1394 1390 1384 1386 1384 1379 1383 1382 1378 1354 1343 1343 1321 1314 1321 1315 1323 1328 1327 1335 1369 1379 1379 1372 1362 1337 1307 1308 1351 1355 1342 1318 1280 1248 1233 1227 1209 1193 1184 1172 1168 1164 1160 1160 1159 1158 1151 1154 1154 1150 1149 1148 1142 1142 1140 1140 1140 1136 1136 1134 1133 1133 1132 1133 1132 1130 1130 1127 1126 1124 1125 1123 1118 1120 1120 1121 1120 1120 1118 1117 1118 1122 1114 1106 1105 1107 1111 1119 1122 1118 1120 1124 1121 -32768 -32768 -32768
-32768 -32768 -32768 3345 3340 3334 3331 3327 3326 3323 3326 3338 3349 3358 3367 3373 3384 3412 3423 3434 3442 3448 3454 3454 3445 3439 3439 3438 3440 3440 3446 3450 3449 3444 3446 3451 3464 3482 3487 3484 3496 3488 3481 3472 3465 3455 3454 3456 3476 3468 3459 3460 3460 3457 3462 3477 3485 3491 3492 3488 3488 3493 3497 3500 3504 3516 3522 3527 3563 3557 3547 3540 3534 3533 3527 3519 3513 3502 3502 3504 3508 3546 3578 3636 3663 3692 3718 3739 3769 3869 3879 3776 3662 3643 3628 3622 3627 3638 3666 3691 3727 3803 3862 3922 3922 4048 4069 4042 4001 3959 3902 3853 3748 3702 3688 3674 3700 3696 3689 3673 3631 3609 3586 3550 3477 3390 3316 3263 3175 3155 3155 3131 3103 3092 3089 3091 3184 3175 3134 3073 3028 2979 2935 2898 2854 2851 2820 2779 2732 2692 2654 2595 2605 2627 2662 2701 2701 2749 2839 2928 2921 2879 2849 2816 2759 2714 2642 2576 2489 2447 2410 2369 2323 2289 2258 2215 2147 2119 2079 2040 2014 1990 1990 1971 1934 1915 1899 1881 1869 1865 1861 1860 1857 1857 1853 1849 1847 1835 1831 1828 1823 1820 1816 1812 1808 1802 1799 1791 1791 1787 1781 1775 1773 1769 1762 1757 1746 1738 1735 1732 1726 1722 1717 1706 1700 1700 1692 1694 1690 1685 1682 1673 1666 1663 1663 1659 1653 1651 1646 1643 1649 1655 1672 1686 1680 1667 1654 1637 1637 1640 1639 1635 1627 1621 1617 1621 1612 1595 1583 1586 1586 1585 1583 1576 1533 1508 1502 1503 1505 1479 1465 1451 1449 1444 1438 1433 1428 1428 1424 1413 1409 1406 1404 1404 1399 1396 1396 1394 1391 1388 1390 1394 1395 1394 1396 1380 1379 1377 1368 1358 1346 1337 1333 1317 1308 1309 1304 1308 1308 1317 1345 1366 1366 1372 1369 1359 1338 1322 1297 1300 1292 1279 1284 1294 1266 1230 1204 1189 1182 1181 1178 1176 1170 1166 1164 1160 1154 1151 1151 1156 1150 1146 1146 1144 1143 1139 1139 1138 1136 1135 1135 1132 1132 1131 1130 1132 1132 1131 1126 1126 1127 1123 1121 1121 1121 1123 1121 1121 1122 1120 1116 1117 1117 1114 1108 1105 1107 1111 1119 1122 1118 1120 1124 1121 -32768 -32768 -32768
-32768 -32768 -32768 3341 3333 3327 3327 3324 3322 3320 3327 3336 3350 3366 3373 3381 3393 3416 3426 3434 3437 3436 3437 3435 3415 3409 3409 3406 3410 3416 3415 3415 3415 3444 3446 3451 3464 3482 3487 3484 3470 3466 3461 3450 3439 3431 3431 3428 3441 3437 3437 3440 3440 3435 3448 3454 3459 3457 3460 3468 3486 3505 3533 3562 3582 3599 3614 3612 3610 3594 3572 3556 3550 3553 3552 3543 3535 3528 3528 3528 3534 3569 3612 3634 3650 3665 3687 3707 3769 3817 3884 3925 3823 3804 3789 3775 3749 3669 3695 3726 3780 3822 3904 3958 3958 4047 4069 4042 4001 3959 3902 3853 3748 3702 3688 3674 3672 3667 3660 3636 3602 3587 3552 3492 3408 3333 3291 3246 3191 3172 3195 3190 3192 3206 3251 3287 3205 3151 3084 3035 2997 2960 2929 2903 2879 2862 2831 2792 2747 2709 2667 2610 2649 2677 2713 2765 2765 2795 2882 2938 2952 2916 2879 2840 2795 2763 2699 2629 2544 2493 2436 2388 2346 2304 2265 2183 2156 2124 2093 2066 2037 2001 2001 1972 1929 1909 1894 1879 1872 1865 1861 1860 1857 1857 1853 1849 1847 1841 1837 1833 1830 1825 1824 1818 1816 1811 1810 1795 1795 1788 1791 1785 1781 1774 1768 1761 1760 1748 1745 1739 1734 1729 1724 1712 1707 1705 1700 1696 1690 1685 1680 1673 1665 1663 1663 1660 1655 1652 1646 1644 1646 1651 1664 1668 1657 1649 1646 1643 1644 1650 1651 1643 1640 1635 1630 1623 1616 1605 1607 1610 1610 1602 1598 1545 1520 1511 1522 1533 1517 1507 1491 1466 1454 1447 1438 1433 1428 1428 1424 1413 1409 1406 1404 1404 1399 1399 1399 1391 1396 1399 1392 1398 1404 1399 1392 1388 1387 1389 1379 1360 1353 1345 1341 1344 1339 1341 1341 1316 1297 1299 1324 1327 1327 1329 1339 1367 1371 1355 1317 1272 1261 1253 1259 1275 1261 1221 1199 1189 1185 1184 1183 1182 1175 1171 1162 1157 1154 1152 1152 1155 1151 1150 1149 1143 1140 1138 1137 1139 1137 1134 1135 1134 1134 1133 1130 1130 1129 1127 1128 1128 1126 1124 1125 1125 1125 1125 1124 1121 1122 1120 1116 1117 1117 1114 1105 1105 1106 1109 1116 1118 1123 1123 1117 1120 -32768 -32768 -32768
-32768 -32768 -32768 3333 3323 3323 3326 3324 3321 3317 3320 3325 3338 3358 3372 3382 3384 3390 3397 3402 3403 3398 3390 3385 3379 3379 3409 3406 3410 3416 3415 3415 3415 3413 3414 3417 3427 3445 3438 3436 3428 3420 3411 3405 3400 3399 3396 3398 3405 3403 3412 3412 3418 3424 3437 3446 3449 3453 3455 3468 3501 3525 3557 3574 3586 3588 3604 3615 3620 3617 3602 3587 3575 3576 3570 3562 3559 3559 3556 3561 3573 3601 3617 3625 3633 3643 3660 3686 3728 3758 3814 3879 3868 3871 3870 3863 3837 3824 3735 3781 3836 3822 3904 3958 3958 4047 4069 4042 4001 3945 3898 3822 3714 3688 3671 3673 3666 3653 3644 3592 3491 3442 3411 3378 3345 3314 3293 3269 3254 3230 3230 3236 3269 3319 3332 3301 3187 3119 3067 3027 2992 2963 2932 2918 2883 2873 2841 2795 2752 2721 2676 2661 2696 2725 2755 2799 2799 2844 2928 2964 2966 2927 2879 2828 2776 2748 2692 2629 2537 2484 2438 2389 2346 2307 2268 2202 2174 2152 2129 2102 2037 2001 2001 1972 1929 1909 1894 1879 1872 1868 1868 1870 1867 1873 1868 1863 1861 1857 1856 1845 1842 1841 1837 1831 1823 1822 1815 1804 1804 1800 1794 1788 1784 1778 1773 1765 1761 1752 1746 1741 1737 1731 1728 1718 1715 1707 1703 1697 1691 1689 1683 1673 1670 1664 1664 1662 1659 1655 1650 1642 1641 1641 1644 1641 1639 1639 1640 1646 1651 1657 1659 1657 1654 1653 1644 1640 1632 1622 1630 1628 1628 1615 1593 1530 1521 1534 1522 1533 1517 1507 1491 1466 1454 1447 1449 1441 1428 1425 1423 1414 1409 1405 1406 1400 1399 1406 1406 1408 1403 1403 1414 1426 1426 1418 1403 1381 1371 1366 1363 1352 1351 1353 1368 1367 1349 1342 1342 1343 1318 1294 1303 1315 1315 1320 1340 1372 1400 1393 1361 1300 1269 1246 1241 1255 1245 1216 1197 1195 1197 1192 1185 1180 1173 1169 1157 1155 1154 1154 1154 1152 1150 1151 1151 1143 1141 1138 1139 1138 1137 1137 1137 1135 1135 1133 1132 1130 1128 1127 1128 1128 1126 1124 1125 1125 1125 1125 1124 1121 1119 1124 1122 1121 1119 1113 1105 1104 1106 1106 1111 1121 1123 1122 1123 1122 -32768 -32768 -32768
-32768 -32768 -32768 3323 3322 3324 3322 3319 3315 3311 3313 3314 3318 3335 3347 3349 3353 3358 3397 3402 3403 3398 3390 3334 3338 3338 3336 3336 3336 3337 3334 3333 3338 3365 3386 3397 3406 3412 3414 3412 3405 3399 3396 3396 3395 3396 3399 3402 3406 3413 3424 3424 3431 3437 3442 3447 3454 3468 3473 3493 3514 3528 3546 3567 3590 3590 3591 3596 3604 3613 3615 3616 3600 3593 3582 3578 3581 3581 3586 3589 3598 3610 3616 3619 3622 3626 3644 3672 3706 3728 3769 3828 3889 3871 3870 3863 3837 3824 3735 3781 3862 3911 3984 3984 4074 4112 4103 4068 4039 3971 3905 3834 3723 3690 3666 3640 3616 3597 3591 3546 3454 3415 3398 3364 3343 3329 3323 3312 3326 3326 3360 3408 3375 3364 3293 3243 3133 3091 3054 3026 3001 2979 2955 2940 2914 2897 2849 2803 2760 2728 2682 2707 2743 2777 2805 2805 2849 2899 2955 2998 2931 2877 2831 2783 2735 2696 2649 2594 2503 2464 2426 2390 2361 2307 2268 2202 2174 2152 2159 2130 2090 2090 2037 1986 1922 1907 1903 1896 1890 1890 1888 1887 1885 1881 1876 1872 1868 1866 1863 1855 1851 1846 1841 1838 1831 1825 1820 1820 1811 1806 1799 1795 1788 1782 1778 1767 1761 1753 1748 1742 1737 1734 1729 1720 1716 1711 1706 1701 1696 1689 1684 1675 1671 1671 1668 1665 1662 1658 1650 1643 1641 1636 1635 1635 1635 1637 1641 1654 1661 1668 1675 1674 1670 1661 1648 1650 1633 1622 1630 1630 1628 1615 1593 1530 1521 1560 1561 1561 1549 1521 1500 1479 1477 1466 1451 1446 1435 1428 1420 1420 1418 1412 1411 1409 1408 1408 1406 1407 1408 1413 1417 1417 1423 1417 1399 1374 1369 1364 1360 1359 1370 1377 1418 1398 1359 1343 1350 1368 1353 1318 1293 1293 1301 1314 1339 1366 1383 1397 1392 1314 1276 1246 1233 1232 1221 1210 1203 1201 1199 1207 1204 1184 1172 1167 1158 1156 1154 1154 1152 1154 1151 1149 1147 1139 1140 1141 1139 1138 1137 1137 1137 1135 1135 1133 1132 1130 1132 1130 1128 1128 1127 1127 1127 1127 1127 1123 1124 1120 1120 1122 1117 1118 1119 1113 1108 1106 1106 1105 1105 1110 1114 1117 1117 1118 -32768 -32768 -32768
-32768 -32768 -32768 3315 3321 3323 3321 3315 3309 3303 3307 3308 3309 3315 3318 3324 3328 3328 3323 3318 3315 3311 3307 3304 3311 3311 3314 3315 3316 3312 3309 3310 3330 3352 3374 3388 3394 3392 3392 3389 3389 3389 3394 3396 3397 3400 3404 3403 3405 3413 3418 3418 3421 3429 3443 3463 3490 3489 3485 3490 3498 3509 3526 3550 3576 3578 3575 3576 3581 3590 3599 3610 3610 3599 3593 3597 3602 3602 3611 3607 3608 3615 3618 3620 3623 3631 3651 3670 3701 3719 3761 3786 3892 3945 3977 4005 4017 4014 3990 3968 3998 4020 4036 4036 4069 4078 4082 4080 4060 3974 3909 3836 3696 3670 3628 3590 3565 3554 3560 3547 3461 3430 3406 3374 3365 3360 3361 3426 3470 3470 3485 3465 3360 3293 3238 3194 3113 3086 3058 3032 3011 2994 2982 2977 2958 2910 2862 2820 2778 2739 2707 2754 2776 2816 2863 2863 2912 2961 3002 2986 2881 2834 2792 2748 2705 2662 2615 2537 2509 2476 2447 2424 2404 2386 2352 2284 2241 2207 2160 2118 2079 2079 2037 2001 1937 1920 1914 1908 1905 1900 1898 1895 1891 1888 1886 1882 1876 1874 1870 1865 1861 1856 1847 1843 1838 1831 1828 1828 1813 1809 1803 1799 1791 1787 1782 1770 1766 1759 1751 1745 1742 1738 1734 1721 1717 1712 1708 1704 1696 1692 1688 1676 1670 1670 1667 1664 1661 1656 1648 1643 1639 1637 1632 1632 1634 1637 1644 1668 1673 1678 1684 1680 1670 1664 1650 1643 1634 1639 1658 1658 1655 1626 1594 1609 1600 1589 1587 1574 1552 1529 1513 1489 1467 1453 1443 1445 1448 1435 1425 1423 1416 1413 1409 1411 1409 1409 1406 1404 1409 1415 1413 1407 1403 1394 1387 1372 1369 1364 1368 1374 1381 1395 1438 1413 1365 1336 1338 1350 1360 1338 1284 1284 1296 1316 1330 1334 1352 1370 1383 1322 1293 1269 1239 1223 1217 1211 1206 1205 1211 1223 1223 1192 1169 1161 1160 1156 1151 1151 1147 1150 1151 1150 1143 1142 1139 1141 1141 1139 1138 1139 1138 1136 1136 1135 1133 1132 1131 1129 1129 1128 1127 1126 1125 1125 1125 1121 1120 1121 1119 1117 1119 1118 1115 1113 1111 1107 1107 1104 1105 1104 1108 1111 1116 1115 -32768 -32768 -32768
-32768 -32768 -32768 3320 3322 3318 3317 3308 3297 3297 3299 3303 3308 3310 3308 3303 3296 3295 3293 3291 3289 3289 3291 3290 3290 3300 3307 3308 3309 3309 3307 3309 3324 3336 3352 3367 3381 3388 3386 3385 3393 3394 3398 3403 3401 3398 3396 3394 3393 3393 3393 3396 3404 3415 3433 3457 3480 3477 3487 3492 3505 3519 3536 3557 3580 3576 3575 3575 3575 3575 3576 3593 3605 3606 3609 3610 3610 3625 3633 3630 3626 3632 3630 3634 3637 3649 3678 3702 3748 3761 3781 3817 3886 3940 3958 3983 3994 4001 4001 4004 4005 4012 4012 4014 4024 4036 4042 4048 4042 3970 3913 3846 3671 3632 3590 3566 3549 3548 3557 3539 3557 3535 3410 3456 3478 3374 3491 3535 3535 3519 3480 3394 3298 3252 3214 3185 3129 3106 3077 3060 3045 3052 3056 3015 2983 2936 2882 2835 2798 2748 2747 2814 2831 2887 2887 2912 2978 3011 3014 2967 2867 2816 2770 2732 2697 2659 2629 2571 2546 2529 2495 2475 2462 2440 2401 2335 2284 2231 2172 2125 2125 2086 2051 2018 1954 1943 1931 1924 1919 1912 1910 1904 1902 1899 1894 1892 1887 1882 1879 1871 1867 1860 1853 1848 1841 1838 1838 1832 1818 1811 1805 1800 1794 1792 1787 1771 1765 1759 1752 1749 1746 1742 1736 1724 1721 1722 1716 1705 1697 1690 1679 1676 1669 1669 1665 1660 1655 1654 1652 1642 1638 1636 1633 1631 1635 1641 1655 1681 1687 1691 1692 1685 1679 1670 1655 1653 1651 1651 1659 1659 1660 1644 1640 1673 1664 1650 1641 1621 1587 1574 1571 1530 1494 1457 1449 1451 1459 1444 1433 1424 1420 1415 1410 1410 1406 1406 1403 1405 1415 1414 1412 1412 1408 1404 1398 1385 1377 1368 1372 1382 1389 1402 1412 1395 1358 1331 1322 1329 1339 1329 1286 1286 1296 1316 1313 1310 1325 1351 1380 1364 1344 1302 1261 1228 1218 1217 1216 1217 1221 1224 1224 1198 1172 1165 1161 1156 1155 1155 1151 1151 1148 1147 1147 1145 1140 1142 1143 1141 1138 1138 1136 1135 1135 1134 1134 1131 1131 1130 1127 1129 1126 1126 1127 1127 1125 1122 1120 1121 1119 1117 1118 1118 1116 1114 1114 1114 1115 1104 1102 1104 1104 1105 1114 1119 -32768 -32768 -32768
-32768 -32768 -32768 3320 3321 3316 3308 3302 3294 3296 3299 3309 3312 3310 3298 3289 3273 3271 3270 3271 3275 3280 3282 3287 3287 3294 3297 3304 3304 3304 3305 3308 3322 3335 3349 3367 3378 3382 3385 3385 3385 3385 3389 3393 3391 3387 3382 3382 3383 3383 3383 3389 3399 3414 3427 3453 3494 3520 3544 3582 3633 3662 3674 3655 3599 3583 3575 3575 3575 3575 3576 3595 3602 3608 3612 3623 3623 3641 3661 3669 3666 3672 3672 3685 3692 3705 3741 3770 3812 3822 3836 3864 3894 3922 3940 3962 3969 3976 3983 3984 3985 3988 3988 3985 3984 3990 3991 3991 3990 3960 3920 3865 3741 3616 3601 3596 3595 3597 3623 3683 3621 3602 3649 3640 3621 3599 3580 3546 3546 3510 3467 3362 3280 3256 3238 3223 3184 3215 3221 3231 3204 3176 3136 3058 3009 2963 2899 2840 2798 2795 2819 2876 2902 2941 2941 2985 3029 3047 3012 2912 2858 2821 2774 2741 2715 2687 2659 2621 2610 2590 2568 2537 2515 2489 2452 2345 2286 2233 2181 2138 2138 2100 2068 2000 1980 1959 1944 1935 1929 1921 1919 1916 1915 1909 1903 1899 1896 1891 1885 1878 1874 1865 1860 1853 1846 1841 1841 1828 1823 1819 1810 1806 1799 1794 1789 1777 1774 1767 1763 1757 1751 1747 1743 1728 1724 1727 1722 1704 1696 1687 1679 1676 1676 1668 1665 1660 1657 1651 1648 1638 1633 1633 1630 1630 1644 1651 1658 1689 1700 1701 1699 1688 1677 1670 1666 1663 1663 1668 1668 1668 1668 1673 1688 1689 1701 1688 1662 1649 1651 1645 1623 1554 1519 1490 1473 1459 1459 1452 1436 1431 1422 1418 1412 1406 1406 1403 1400 1400 1408 1409 1405 1400 1399 1403 1413 1395 1386 1378 1370 1371 1377 1381 1382 1376 1372 1362 1327 1308 1302 1301 1301 1284 1279 1297 1297 1294 1315 1342 1378 1374 1344 1309 1269 1236 1224 1218 1213 1210 1205 1199 1192 1183 1173 1168 1162 1156 1156 1155 1153 1152 1148 1148 1145 1142 1140 1144 1140 1139 1136 1135 1137 1135 1134 1136 1135 1133 1130 1133 1126 1128 1127 1126 1126 1127 1125 1123 1118 1124 1120 1119 1120 1118 1119 1119 1115 1113 1115 1108 1104 1104 1103 1103 1109 1116 -32768 -32768 -32768
-32768 -32768 -32768 3318 3314 3307 3297 3293 3288 3296 3306 3312 3307 3299 3287 3278 3265 3260 3259 3259 3265 3268 3273 3273 3283 3288 3291 3299 3304 3307 3311 3316 3324 3331 3341 3355 3363 3369 3376 3379 3376 3370 3373 3375 3383 3389 3391 3384 3380 3380 3381 3393 3409 3428 3458 3486 3529 3520 3544 3582 3633 3662 3674 3655 3622 3588 3575 3575 3575 3575 3578 3591 3599 3610 3616 3616 3635 3663 3698 3721 3744 3740 3741 3747 3758 3780 3799 3809 3830 3842 3849 3864 3887 3909 3924 3945 3955 3961 3965 3969 3971 3971 3969 3962 3951 3945 3939 3943 3951 3960 3953 3890 3788 3737 3636 3640 3654 3680 3769 3732 3702 3679 3664 3638 3610 3594 3573 3573 3521 3496 3449 3361 3315 3303 3238 3224 3184 3215 3221 3231 3204 3176 3135 3034 2984 2945 2899 2850 2843 2859 2876 2956 2993 3005 3005 3028 3052 3068 3013 2925 2884 2843 2811 2799 2772 2738 2707 2699 2677 2642 2595 2544 2512 2487 2438 2326 2272 2228 2181 2143 2143 2110 2078 2026 1996 1968 1954 1948 1940 1934 1934 1926 1923 1917 1910 1907 1914 1908 1903 1892 1884 1879 1870 1861 1854 1849 1849 1834 1829 1822 1817 1809 1803 1798 1795 1783 1774 1767 1763 1757 1751 1747 1743 1728 1722 1719 1717 1709 1697 1690 1684 1678 1678 1671 1666 1660 1657 1652 1648 1640 1636 1630 1629 1624 1631 1644 1684 1700 1694 1691 1690 1687 1684 1681 1673 1678 1676 1670 1670 1670 1672 1674 1671 1691 1711 1704 1695 1698 1689 1672 1625 1588 1553 1511 1479 1462 1456 1446 1435 1431 1426 1417 1411 1409 1409 1405 1407 1400 1400 1392 1383 1384 1384 1386 1386 1380 1371 1368 1358 1357 1359 1359 1348 1376 1372 1362 1327 1308 1302 1301 1301 1284 1279 1276 1278 1284 1302 1315 1338 1327 1312 1283 1246 1230 1221 1218 1204 1199 1192 1188 1182 1176 1172 1165 1160 1160 1160 1156 1152 1151 1151 1147 1147 1142 1144 1143 1140 1140 1137 1136 1138 1133 1135 1137 1136 1135 1132 1133 1127 1127 1128 1126 1126 1126 1126 1125 1120 1123 1121 1118 1117 1118 1121 1118 1120 1119 1117 1119 1109 1104 1104 1105 1105 1113 -32768 -32768 -32768
-32768 -32768 -32768 3312 3303 3293 3286 3286 3292 3300 3302 3298 3296 3287 3277 3267 3254 3251 3251 3255 3259 3263 3268 3268 3276 3282 3295 3305 3312 3317 3321 3323 3327 3327 3329 3332 3336 3341 3350 3359 3368 3373 3376 3383 3393 3400 3407 3399 3396 3396 3381 3393 3409 3428 3458 3486 3529 3558 3603 3653 3697 3743 3795 3827 3618 3592 3575 3575 3575 3575 3580 3591 3597 3605 3622 3622 3648 3686 3713 3729 3774 3779 3778 3776 3783 3794 3804 3819 3826 3839 3847 3858 3873 3891 3908 3934 3944 3951 3953 3957 3952 3952 3948 3939 3913 3910 3907 3911 3911 3911 3929 3945 3896 3867 3835 3730 3757 3793 3775 3689 3673 3655 3641 3626 3596 3571 3573 3573 3521 3496 3449 3361 3315 3303 3310 3365 3344 3351 3310 3261 3212 3160 3116 3045 3001 2951 2909 2910 2917 2935 2941 2999 3073 3073 3075 3083 3111 3095 3039 2957 2913 2884 2864 2859 2836 2787 2766 2718 2670 2621 2571 2524 2487 2456 2410 2310 2270 2231 2194 2194 2170 2171 2137 2061 2022 1996 1978 1968 1962 1957 1955 1949 1944 1938 1935 1926 1921 1917 1906 1896 1892 1881 1872 1865 1860 1860 1853 1840 1829 1822 1817 1809 1803 1798 1795 1783 1778 1771 1766 1758 1751 1745 1734 1726 1721 1718 1712 1705 1697 1696 1701 1701 1686 1673 1665 1661 1657 1654 1649 1637 1633 1630 1628 1622 1622 1635 1667 1676 1667 1669 1671 1678 1690 1691 1688 1681 1661 1661 1645 1642 1646 1647 1653 1681 1687 1719 1733 1722 1679 1665 1614 1571 1530 1484 1465 1462 1460 1457 1440 1436 1425 1422 1417 1412 1412 1407 1407 1407 1404 1401 1391 1383 1382 1379 1376 1380 1371 1368 1358 1357 1359 1359 1348 1343 1341 1340 1324 1306 1297 1287 1287 1296 1289 1273 1269 1279 1288 1286 1288 1274 1254 1237 1227 1223 1217 1213 1211 1211 1208 1194 1176 1170 1169 1161 1159 1156 1156 1155 1150 1151 1148 1148 1147 1146 1146 1142 1141 1140 1137 1138 1137 1134 1134 1135 1138 1135 1132 1131 1128 1127 1128 1128 1128 1123 1124 1124 1125 1124 1121 1121 1122 1120 1120 1120 1119 1117 1116 1117 1111 1105 1104 1105 1105 1113 -32768 -32768 -32768
-32768 -32768 -32768 3296 3287 3281 3285 3286 3292 3291 3285 3269 3264 3255 3240 3232 3233 3237 3242 3247 3257 3262 3262 3268 3286 3291 3299 3311 3320 3323 3323 3325 3331 3328 3327 3334 3339 3352 3365 3386 3388 3389 3376 3383 3393 3400 3407 3399 3399 3396 3398 3411 3429 3460 3490 3515 3567 3603 3662 3711 3769 3796 3833 3734 3674 3600 3576 3575 3575 3575 3578 3584 3591 3604 3628 3628 3671 3718 3745 3746 3794 3794 3790 3789 3793 3796 3802 3815 3820 3828 3839 3849 3855 3867 3882 3909 3923 3926 3927 3932 3939 3939 3937 3936 3908 3908 3907 3907 3911 3911 3911 3950 3938 3926 3903 3865 3821 3769 3775 3689 3673 3655 3641 3626 3596 3571 3547 3547 3508 3494 3445 3387 3362 3382 3424 3463 3414 3363 3316 3269 3224 3175 3141 3053 2994 2967 2971 2979 2988 3001 3012 3104 3106 3106 3135 3171 3163 3125 3074 2981 2955 2937 2924 2907 2875 2823 2776 2671 2627 2592 2568 2548 2516 2502 2453 2416 2377 2329 2276 2276 2236 2196 2155 2085 2052 2027 2002 1987 1974 1967 1966 1960 1953 1949 1943 1938 1932 1924 1910 1896 1892 1881 1872 1865 1860 1860 1853 1840 1829 1825 1816 1811 1807 1802 1797 1785 1776 1770 1764 1759 1755 1747 1730 1723 1718 1720 1715 1707 1701 1696 1696 1696 1684 1675 1671 1660 1658 1656 1646 1637 1633 1630 1625 1621 1616 1617 1639 1645 1639 1633 1644 1624 1626 1644 1645 1627 1610 1610 1598 1604 1604 1610 1608 1608 1612 1619 1623 1627 1629 1617 1568 1538 1509 1486 1468 1469 1471 1465 1444 1438 1427 1420 1417 1417 1415 1409 1406 1407 1404 1401 1391 1383 1382 1379 1376 1374 1375 1370 1361 1364 1360 1357 1349 1340 1330 1325 1319 1305 1297 1297 1284 1285 1285 1277 1267 1263 1272 1271 1255 1244 1233 1240 1245 1250 1252 1246 1235 1234 1218 1194 1172 1165 1165 1159 1155 1155 1155 1154 1153 1150 1149 1147 1145 1142 1144 1143 1141 1138 1139 1140 1137 1136 1131 1137 1136 1134 1137 1131 1129 1127 1125 1125 1125 1126 1128 1125 1124 1123 1122 1119 1121 1124 1122 1119 1119 1118 1119 1119 1116 1105 1104 1105 1105 1113 -32768 -32768 -32768
-32768 -32768 -32768 3267 3271 3280 3286 3285 3271 3266 3261 3253 3242 3230 3224 3226 3228 3228 3234 3242 3252 3261 3261 3267 3292 3297 3314 3325 3329 3328 3329 3332 3339 3335 3335 3334 3339 3352 3365 3386 3388 3389 3392 3391 3395 3400 3409 3430 3430 3428 3431 3447 3466 3489 3512 3533 3595 3651 3703 3738 3779 3812 3851 3761 3695 3589 3575 3575 3575 3575 3575 3577 3587 3622 3622 3655 3691 3728 3748 3818 3856 3866 3854 3831 3824 3813 3810 3819 3828 3839 3848 3855 3868 3870 3880 3903 3913 3917 3923 3930 3930 3939 3940 3929 3913 3909 3910 3909 3911 3911 3911 3950 3938 3926 3903 3865 3821 3769 3723 3636 3626 3614 3609 3593 3582 3555 3555 3517 3501 3479 3445 3428 3445 3495 3548 3466 3434 3382 3336 3285 3227 3180 3132 3051 3042 3034 3038 3050 3067 3063 3093 3192 3192 3219 3260 3259 3225 3171 3151 3102 3060 3014 2963 2910 2864 2810 2762 2689 2664 2646 2625 2592 2565 2558 2507 2472 2420 2358 2358 2304 2260 2221 2183 2137 2103 2062 2027 2004 1986 1978 1977 1966 1953 1949 1943 1938 1932 1924 1910 1900 1891 1878 1868 1860 1859 1859 1855 1841 1834 1828 1823 1817 1809 1801 1792 1780 1776 1768 1758 1753 1746 1738 1725 1721 1714 1713 1711 1704 1700 1693 1684 1684 1677 1673 1670 1665 1654 1648 1638 1634 1626 1624 1619 1617 1613 1609 1600 1598 1599 1600 1591 1602 1601 1606 1605 1597 1594 1594 1594 1595 1594 1598 1600 1596 1590 1584 1582 1581 1575 1560 1525 1510 1490 1478 1474 1469 1462 1465 1444 1438 1427 1420 1417 1417 1415 1409 1402 1402 1400 1401 1395 1391 1387 1379 1372 1374 1375 1364 1365 1366 1363 1356 1349 1338 1333 1322 1317 1308 1306 1306 1284 1279 1278 1276 1271 1261 1256 1256 1245 1238 1241 1258 1274 1304 1294 1278 1253 1226 1208 1184 1166 1158 1157 1154 1153 1153 1153 1151 1151 1151 1148 1146 1145 1144 1143 1143 1140 1140 1139 1139 1138 1135 1131 1136 1133 1133 1136 1134 1133 1130 1127 1127 1127 1128 1128 1125 1125 1124 1122 1120 1121 1124 1122 1118 1119 1118 1119 1119 1116 1105 1102 1103 1105 1112 -32768 -32768 -32768
-32768 -32768 -32768 3264 3270 3276 3281 3270 3258 3246 3232 3224 3217 3211 3209 3217 3224 3227 3235 3249 3263 3263 3275 3281 3295 3304 3315 3325 3329 3328 3329 3332 3339 3335 3335 3343 3350 3362 3377 3402 3406 3405 3405 3404 3404 3428 3451 3461 3461 3457 3458 3470 3480 3497 3518 3560 3589 3627 3632 3685 3741 3799 3832 3785 3721 3616 3586 3575 3575 3575 3575 3575 3590 3615 3615 3643 3684 3725 3751 3826 3886 3918 3900 3886 3867 3857 3840 3842 3846 3854 3866 3881 3885 3897 3903 3915 3916 3918 3925 3934 3934 3940 3942 3932 3913 3909 3910 3909 3911 3911 3911 3950 3961 3962 3950 3906 3853 3796 3738 3604 3594 3580 3570 3564 3555 3543 3543 3515 3486 3466 3456 3455 3491 3550 3586 3472 3422 3382 3350 3302 3257 3210 3194 3176 3167 3156 3175 3203 3224 3233 3259 3272 3272 3266 3295 3266 3252 3148 3114 3105 3053 3014 2934 2907 2875 2836 2760 2741 2723 2701 2678 2649 2631 2609 2534 2494 2430 2380 2380 2328 2288 2254 2235 2177 2103 2062 2027 2004 1986 1978 1972 1966 1963 1957 1951 1945 1938 1929 1900 1883 1874 1868 1859 1851 1851 1847 1845 1838 1833 1824 1818 1807 1797 1790 1777 1772 1770 1763 1755 1754 1751 1746 1738 1730 1722 1709 1699 1693 1690 1689 1689 1682 1684 1689 1697 1685 1661 1654 1639 1636 1629 1623 1617 1611 1609 1604 1599 1591 1588 1589 1585 1591 1589 1589 1586 1585 1585 1577 1580 1587 1592 1592 1590 1592 1592 1592 1584 1565 1549 1560 1525 1510 1490 1478 1474 1469 1462 1456 1441 1435 1430 1424 1424 1422 1418 1413 1405 1400 1398 1397 1393 1387 1386 1376 1370 1367 1364 1359 1365 1361 1358 1354 1345 1338 1334 1320 1309 1299 1295 1295 1291 1287 1277 1274 1283 1285 1278 1280 1280 1293 1293 1296 1306 1308 1297 1271 1247 1225 1209 1188 1175 1160 1158 1155 1153 1153 1149 1150 1151 1149 1147 1142 1141 1143 1143 1139 1141 1142 1140 1138 1138 1136 1135 1138 1133 1135 1134 1132 1129 1129 1127 1127 1127 1128 1128 1125 1125 1124 1122 1120 1121 1120 1120 1117 1118 1118 1118 1118 1113 1104 1105 1102 1103 1105 -32768 -32768 -32768
-32768 -32768 -32768 3261 3265 3267 3265 3244 3231 3217 3209 3202 3199 3198 3207 3220 3227 3238 3248 3268 3263 3263 3275 3281 3295 3304 3315 3325 3331 3332 3335 3346 3352 3350 3352 3354 3355 3366 3376 3396 3407 3417 3429 3467 3469 3472 3479 3479 3471 3466 3460 3458 3469 3481 3503 3551 3571 3582 3602 3651 3710 3776 3825 3792 3734 3617 3590 3579 3575 3575 3575 3575 3588 3588 3613 3648 3694 3728 3744 3829 3876 3939 3955 3945 3922 3912 3898 3872 3871 3875 3889 3903 3915 3922 3928 3934 3916 3918 3925 3925 3934 3940 3942 3932 3912 3910 3909 3908 3911 3911 3911 3942 3974 3967 3950 3904 3852 3802 3745 3617 3610 3635 3670 3670 3660 3660 3641 3513 3516 3518 3519 3619 3633 3631 3610 3522 3481 3428 3384 3328 3289 3276 3266 3272 3219 3217 3244 3293 3312 3296 3279 3293 3293 3226 3196 3161 3123 3088 3060 3043 2987 2971 2922 2899 2901 2859 2778 2771 2758 2717 2723 2680 2625 2596 2512 2494 2430 2380 2380 2328 2288 2254 2235 2177 2130 2091 2061 2031 2006 1990 1981 1977 1973 1965 1955 1948 1938 1924 1891 1910 1911 1903 1891 1885 1885 1875 1862 1836 1827 1821 1813 1809 1806 1805 1794 1789 1782 1774 1765 1765 1757 1746 1736 1730 1724 1717 1709 1703 1703 1698 1698 1685 1683 1682 1685 1674 1656 1654 1641 1635 1628 1624 1622 1616 1612 1601 1594 1587 1585 1578 1577 1575 1575 1577 1572 1573 1573 1569 1572 1579 1582 1592 1590 1592 1592 1592 1584 1565 1549 1527 1498 1491 1483 1476 1478 1473 1467 1448 1442 1437 1433 1428 1428 1424 1420 1412 1402 1399 1396 1390 1388 1384 1381 1378 1371 1370 1363 1359 1359 1352 1351 1350 1346 1337 1325 1315 1309 1303 1303 1297 1287 1280 1280 1298 1312 1320 1314 1315 1305 1315 1322 1320 1310 1299 1282 1271 1261 1242 1223 1201 1184 1166 1157 1152 1152 1150 1150 1152 1147 1145 1147 1146 1145 1144 1145 1144 1143 1141 1141 1137 1138 1136 1135 1138 1133 1135 1134 1132 1129 1129 1129 1128 1127 1125 1129 1126 1124 1122 1122 1125 1124 1121 1120 1116 1118 1119 1119 1117 1116 1114 1108 1104 1101 1102 -32768 -32768 -32768
-32768 -32768 -32768 3258 3256 3253 3246 3218 3202 3194 3190 3190 3192 3198 3207 3220 3227 3238 3248 3268 3285 3285 3298 3309 3315 3318 3323 3334 3336 3333 3333 3343 3349 3358 3372 3373 3372 3374 3380 3398 3421 3448 3476 3484 3481 3479 3479 3479 3475 3474 3470 3466 3479 3506 3532 3564 3579 3578 3588 3623 3674 3728 3784 3796 3748 3627 3600 3580 3575 3575 3575 3579 3585 3585 3608 3644 3684 3717 3739 3814 3858 3959 4001 4009 3988 3966 3943 3910 3871 3875 3889 3903 3915 3922 3935 3934 3939 3938 3941 3941 3943 3947 3955 3939 3917 3911 3909 3911 3911 3911 3911 3949 3968 3918 3870 3820 3780 3755 3757 3747 3740 3726 3740 3749 3741 3741 3721 3672 3657 3525 3634 3757 3738 3702 3658 3560 3503 3444 3400 3359 3334 3317 3348 3347 3262 3266 3310 3339 3314 3273 3231 3231 3192 3153 3111 3070 3032 3002 2982 2970 2935 2924 2874 2844 2857 2799 2748 2771 2758 2717 2723 2680 2625 2596 2512 2479 2432 2432 2391 2354 2324 2295 2271 2196 2153 2108 2069 2038 2018 2001 1988 1971 1951 1939 1928 1922 1917 1912 1923 1918 1911 1901 1891 1891 1875 1865 1849 1841 1835 1829 1828 1825 1816 1810 1794 1787 1781 1774 1767 1763 1756 1749 1738 1730 1726 1715 1710 1707 1702 1702 1690 1683 1679 1673 1668 1663 1657 1653 1640 1635 1631 1627 1624 1617 1609 1603 1594 1585 1581 1578 1572 1575 1575 1575 1572 1573 1573 1569 1572 1579 1582 1581 1561 1562 1576 1583 1561 1537 1515 1492 1480 1477 1465 1463 1461 1457 1456 1443 1437 1431 1430 1426 1426 1423 1419 1414 1405 1400 1396 1391 1390 1383 1379 1372 1365 1361 1360 1361 1356 1350 1348 1343 1337 1331 1323 1315 1305 1298 1298 1295 1293 1291 1303 1315 1323 1331 1347 1359 1352 1341 1333 1324 1304 1279 1264 1247 1235 1221 1199 1181 1169 1158 1154 1154 1154 1155 1153 1151 1148 1145 1148 1147 1145 1144 1145 1144 1143 1141 1141 1137 1138 1136 1135 1136 1136 1134 1134 1132 1130 1129 1129 1128 1128 1127 1125 1126 1125 1122 1120 1119 1121 1120 1122 1120 1118 1119 1121 1120 1115 1117 1113 1106 1104 1105 -32768 -32768 -32768
-32768 -32768 -32768 3250 3237 3228 3246 3218 3202 3194 3190 3190 3192 3203 3243 3275 3288 3298 3300 3299 3299 3302 3304 3302 3304 3309 3313 3317 3324 3328 3328 3339 3349 3360 3371 3376 3379 3377 3376 3396 3416 3448 3472 3478 3474 3473 3473 3479 3486 3492 3494 3500 3527 3558 3573 3586 3586 3575 3575 3593 3652 3693 3749 3828 3765 3708 3606 3588 3575 3575 3575 3580 3580 3591 3612 3644 3676 3697 3719 3799 3832 3959 4001 4009 3988 3966 3943 3910 3912 3916 3923 3958 3970 3974 3973 3970 3964 3974 3992 3992 4003 3987 3960 3952 3948 3935 3916 3911 3911 3911 3919 3959 3934 3899 3845 3792 3750 3725 3719 3727 3744 3770 3799 3877 3851 3851 3830 3737 3791 3751 3745 3739 3701 3648 3616 3559 3537 3512 3472 3437 3409 3385 3343 3322 3272 3261 3287 3282 3253 3223 3151 3151 3107 3059 3012 2970 2936 2911 2890 2889 2935 2924 2874 2844 2857 2799 2748 2704 2672 2595 2566 2537 2492 2453 2394 2364 2349 2349 2343 2320 2297 2261 2186 2145 2106 2071 2039 2012 2004 1997 1967 1955 1950 1953 1949 1944 1940 1941 1931 1921 1910 1898 1886 1886 1876 1879 1862 1855 1851 1841 1834 1828 1818 1812 1797 1789 1782 1775 1769 1762 1756 1750 1739 1731 1726 1720 1713 1707 1703 1703 1690 1684 1678 1674 1670 1664 1661 1655 1643 1638 1631 1626 1622 1617 1609 1603 1594 1585 1581 1578 1572 1567 1568 1563 1547 1547 1543 1543 1534 1534 1530 1525 1513 1508 1505 1504 1499 1493 1488 1483 1477 1473 1467 1464 1460 1456 1449 1445 1441 1434 1430 1430 1427 1423 1420 1417 1410 1401 1398 1393 1391 1387 1383 1367 1361 1356 1353 1358 1354 1349 1345 1334 1324 1318 1313 1308 1299 1299 1303 1310 1321 1337 1357 1357 1366 1371 1386 1402 1370 1338 1315 1308 1294 1273 1255 1224 1210 1194 1182 1170 1162 1157 1154 1154 1154 1155 1153 1151 1148 1145 1148 1144 1142 1146 1146 1145 1143 1141 1141 1138 1138 1134 1136 1137 1136 1134 1132 1130 1129 1129 1129 1129 1125 1123 1124 1123 1126 1125 1124 1123 1120 1120 1121 1119 1117 1118 1119 1119 1117 1117 1116 1107 1105 1103 -32768 -32768 -32768
-32768 -32768 -32768 3223 3207 3191 3182 3172 3173 3180 3194 3205 3226 3256 3279 3302 3306 3306 3302 3299 3299 3297 3302 3305 3308 3313 3314 3317 3319 3324 3330 3344 3349 3360 3378 3394 3405 3409 3409 3400 3409 3433 3454 3461 3460 3460 3460 3470 3485 3504 3513 3518 3535 3551 3563 3585 3585 3575 3576 3595 3647 3668 3709 3816 3778 3731 3620 3601 3580 3575 3583 3588 3588 3596 3612 3644 3657 3681 3702 3784 3864 3934 3996 4035 4076 4069 4026 4007 3996 3989 3987 3984 3984 3988 3970 3967 3977 3998 3998 4002 3989 3945 3920 3931 3941 3941 3921 3913 3918 3928 3975 3975 3917 3899 3842 3785 3736 3703 3692 3712 3744 3783 3821 3882 3882 3838 3816 3803 3774 3744 3715 3689 3643 3598 3541 3527 3516 3499 3458 3422 3391 3342 3260 3215 3232 3217 3213 3221 3208 3140 3140 3060 3107 3059 2915 2876 2845 2824 2809 2831 2803 2761 2741 2703 2679 2628 2598 2556 2543 2531 2518 2492 2441 2404 2335 2310 2310 2287 2268 2249 2227 2206 2130 2098 2074 2059 2036 2035 2051 2045 1996 1984 1981 1973 1966 1959 1956 1951 1928 1916 1902 1895 1890 1890 1894 1888 1869 1860 1851 1840 1832 1825 1819 1809 1798 1791 1783 1774 1769 1762 1759 1752 1737 1732 1727 1723 1716 1709 1703 1703 1692 1686 1678 1674 1672 1664 1661 1653 1643 1640 1633 1629 1625 1617 1612 1601 1598 1594 1587 1585 1579 1570 1563 1556 1550 1550 1544 1539 1534 1530 1524 1521 1512 1508 1505 1503 1497 1493 1487 1483 1479 1475 1472 1467 1463 1459 1453 1444 1438 1437 1431 1431 1426 1422 1418 1415 1408 1402 1399 1392 1386 1381 1380 1371 1366 1359 1353 1349 1350 1345 1337 1325 1320 1318 1315 1314 1320 1320 1329 1336 1360 1380 1393 1392 1394 1404 1420 1415 1376 1348 1325 1314 1304 1309 1255 1224 1210 1217 1204 1177 1162 1155 1153 1153 1155 1154 1149 1145 1146 1147 1143 1144 1145 1144 1143 1144 1142 1139 1139 1138 1138 1138 1138 1136 1135 1133 1131 1131 1130 1130 1128 1127 1124 1125 1124 1123 1125 1124 1121 1119 1119 1119 1121 1120 1117 1114 1116 1116 1120 1117 1116 1114 1109 1105 -32768 -32768 -32768
-32768 -32768 -32768 3179 3171 3166 3165 3173 3181 3198 3220 3246 3269 3284 3299 3301 3301 3298 3296 3296 3301 3306 3313 3320 3323 3323 3329 3332 3334 3339 3346 3358 3361 3380 3402 3415 3425 3434 3438 3434 3425 3425 3436 3446 3448 3448 3457 3463 3474 3494 3513 3523 3532 3535 3551 3570 3574 3573 3588 3616 3635 3652 3738 3786 3817 3754 3706 3637 3616 3593 3588 3588 3588 3588 3596 3616 3635 3656 3688 3775 3858 3934 4039 4067 4108 4113 4076 4069 4047 4034 4021 4001 3993 3978 3985 3993 4012 4045 4045 4037 3982 3928 3913 3912 3918 3925 3924 3932 3947 3975 4035 4001 3917 3921 3865 3804 3746 3698 3657 3677 3713 3755 3791 3806 3806 3771 3762 3738 3723 3695 3666 3646 3601 3557 3495 3476 3464 3451 3417 3385 3329 3274 3193 3187 3167 3147 3166 3158 3080 3045 3045 2964 2918 2871 2828 2794 2767 2749 2734 2789 2746 2699 2668 2633 2588 2565 2509 2498 2474 2466 2456 2430 2392 2321 2289 2257 2257 2231 2203 2180 2159 2142 2096 2099 2111 2102 2092 2091 2101 2084 2020 2003 1992 1979 1972 1968 1967 1940 1928 1930 1922 1913 1913 1908 1898 1890 1874 1865 1855 1845 1837 1831 1819 1810 1801 1793 1785 1779 1773 1769 1761 1746 1738 1732 1727 1724 1718 1709 1709 1704 1694 1687 1680 1675 1670 1664 1660 1654 1644 1639 1634 1629 1624 1619 1611 1603 1599 1594 1587 1582 1577 1572 1567 1555 1555 1549 1546 1541 1534 1531 1527 1522 1515 1514 1509 1507 1501 1498 1491 1488 1481 1478 1474 1467 1463 1460 1454 1449 1441 1443 1439 1439 1433 1430 1423 1419 1408 1402 1397 1393 1390 1384 1380 1368 1367 1365 1355 1351 1345 1340 1333 1324 1326 1328 1332 1340 1346 1346 1360 1364 1386 1407 1415 1415 1418 1433 1419 1389 1384 1375 1365 1341 1312 1300 1291 1240 1226 1217 1198 1177 1164 1155 1151 1151 1152 1147 1149 1147 1145 1147 1146 1144 1145 1148 1145 1138 1136 1136 1138 1135 1135 1138 1135 1134 1134 1133 1130 1129 1131 1131 1128 1127 1122 1121 1121 1120 1121 1122 1124 1120 1118 1118 1120 1119 1119 1120 1118 1122 1122 1120 1117 1118 1113 1110 -32768 -32768 -32768
-32768 -32768 -32768 3158 3158 3158 3169 3196 3214 3239 3262 3276 3284 3289 3292 3295 3295 3292 3294 3294 3299 3307 3318 3331 3337 3341 3347 3355 3361 3366 3370 3390 3396 3410 3430 3439 3459 3476 3490 3485 3472 3462 3456 3452 3447 3447 3449 3468 3475 3482 3498 3517 3525 3537 3554 3574 3579 3578 3591 3602 3618 3632 3698 3745 3798 3768 3734 3688 3672 3651 3615 3615 3595 3586 3587 3597 3610 3639 3676 3758 3853 3931 4004 4065 4116 4177 4154 4106 4082 4067 4054 4034 4012 4002 3999 4015 4043 4043 4069 4091 4057 3915 3908 3921 3930 3946 3965 3985 4022 4063 4099 4054 3997 3957 3905 3844 3780 3718 3634 3643 3674 3709 3737 3737 3679 3655 3612 3593 3589 3640 3611 3583 3554 3527 3451 3420 3424 3405 3351 3282 3237 3205 3141 3117 3090 3064 3039 3013 2982 2911 2911 2874 2831 2740 2729 2721 2698 2684 2665 2657 2644 2615 2582 2554 2526 2508 2465 2448 2433 2416 2394 2366 2328 2266 2239 2204 2204 2178 2159 2141 2135 2129 2130 2154 2168 2163 2151 2134 2109 2082 2034 2018 2000 1987 1978 1976 1970 1940 1945 1940 1929 1921 1926 1915 1906 1897 1880 1870 1861 1851 1844 1833 1823 1816 1801 1794 1787 1779 1772 1766 1760 1748 1738 1734 1728 1725 1719 1713 1713 1707 1692 1685 1680 1676 1671 1664 1661 1652 1644 1638 1634 1628 1623 1619 1612 1602 1598 1591 1588 1583 1578 1573 1569 1558 1558 1552 1552 1545 1537 1533 1528 1528 1517 1512 1509 1506 1503 1500 1494 1487 1483 1479 1474 1469 1465 1462 1459 1454 1447 1445 1445 1440 1435 1428 1422 1416 1414 1406 1400 1396 1393 1387 1385 1375 1371 1365 1362 1354 1347 1342 1340 1334 1337 1345 1350 1357 1357 1358 1365 1388 1397 1406 1413 1421 1415 1411 1395 1364 1379 1397 1390 1354 1313 1285 1276 1248 1233 1220 1200 1184 1172 1156 1150 1150 1151 1147 1147 1145 1145 1145 1144 1144 1141 1145 1142 1137 1135 1137 1137 1135 1132 1129 1132 1133 1131 1132 1132 1128 1128 1128 1129 1128 1126 1124 1121 1120 1124 1123 1120 1119 1121 1119 1119 1120 1118 1118 1118 1121 1119 1119 1117 1118 1116 1115 -32768 -32768 -32768
-32768 -32768 -32768 3156 3160 3172 3187 3227 3246 3263 3275 3284 3286 3288 3293 3294 3296 3299 3299 3294 3296 3302 3313 3343 3349 3355 3364 3374 3384 3394 3400 3453 3467 3492 3527 3565 3600 3628 3690 3718 3712 3643 3560 3492 3449 3449 3449 3468 3475 3482 3498 3517 3527 3536 3566 3585 3588 3585 3597 3618 3631 3631 3678 3713 3759 3789 3755 3744 3726 3690 3627 3627 3603 3604 3607 3612 3617 3630 3710 3778 3851 3926 3997 4057 4103 4129 4117 4098 4082 4077 4113 4093 4067 4048 4096 4138 4170 4170 4176 4152 4110 4061 3976 3952 3972 4015 4025 4042 4054 4024 4038 4044 4038 4010 3978 3930 3868 3797 3668 3610 3628 3684 3702 3702 3679 3655 3612 3593 3589 3579 3552 3521 3501 3490 3430 3391 3355 3311 3262 3218 3169 3142 3071 3042 3011 2980 2950 2920 2889 2889 2825 2794 2723 2706 2687 2678 2652 2635 2604 2593 2583 2553 2531 2511 2491 2473 2443 2425 2407 2384 2355 2317 2284 2229 2200 2200 2181 2178 2178 2176 2181 2183 2189 2215 2228 2216 2230 2184 2142 2111 2093 2079 2053 2030 2004 1990 1991 1971 1958 1948 1939 1939 1926 1915 1906 1897 1880 1870 1861 1851 1844 1835 1825 1810 1805 1796 1788 1782 1775 1770 1765 1752 1747 1739 1734 1726 1718 1712 1712 1707 1695 1689 1684 1676 1672 1662 1662 1647 1640 1636 1634 1629 1622 1618 1614 1604 1599 1594 1590 1582 1582 1573 1571 1564 1564 1561 1553 1548 1543 1536 1530 1523 1519 1515 1510 1505 1502 1499 1494 1488 1484 1480 1476 1475 1469 1470 1465 1458 1454 1449 1449 1445 1438 1433 1431 1417 1413 1408 1402 1397 1393 1387 1385 1375 1371 1365 1362 1358 1354 1348 1347 1355 1352 1352 1351 1350 1350 1345 1351 1358 1360 1366 1368 1374 1377 1367 1357 1329 1345 1367 1367 1342 1306 1279 1260 1244 1232 1219 1205 1192 1176 1158 1158 1149 1148 1146 1146 1146 1148 1144 1140 1144 1142 1142 1141 1136 1136 1137 1137 1135 1133 1131 1131 1131 1132 1133 1127 1126 1126 1126 1126 1124 1127 1126 1123 1120 1121 1121 1121 1121 1119 1119 1118 1119 1118 1119 1118 1119 1119 1119 1120 1119 1116 1115 1115 -32768 -32768
-32768 -32768 -32768 3178 3187 3206 3237 3250 3259 3270 3278 3286 3291 3298 3306 3305 3330 3334 3334 3338 3349 3360 3379 3407 3410 3415 3409 3411 3419 3428 3455 3469 3484 3505 3539 3574 3613 3628 3690 3718 3712 3643 3560 3492 3492 3457 3444 3472 3485 3495 3502 3513 3522 3530 3569 3596 3609 3614 3622 3631 3631 3631 3669 3690 3726 3769 3767 3757 3741 3710 3710 3655 3635 3630 3628 3630 3639 3635 3695 3786 3855 3923 3985 4037 4076 4095 4077 4060 4048 4042 4043 4040 4038 4048 4105 4156 4156 4187 4186 4155 4106 4054 3964 3947 3951 3968 4034 4012 3993 3987 3991 3999 4012 4010 3978 3930 3868 3797 3668 3610 3628 3648 3634 3634 3615 3593 3545 3530 3518 3519 3501 3473 3448 3450 3417 3372 3296 3251 3217 3159 3119 3068 2981 2959 2924 2858 2824 2806 2808 2808 2725 2692 2676 2658 2638 2628 2610 2585 2570 2548 2530 2513 2494 2478 2464 2429 2409 2392 2370 2352 2327 2350 2318 2268 2247 2247 2253 2278 2300 2300 2303 2306 2304 2318 2322 2285 2242 2201 2182 2159 2136 2109 2076 2042 2004 1990 1991 1971 1958 1948 1939 1939 1926 1916 1908 1899 1880 1872 1861 1853 1843 1833 1827 1814 1806 1801 1794 1787 1782 1775 1770 1753 1750 1744 1736 1728 1720 1720 1714 1710 1696 1692 1686 1679 1672 1665 1661 1647 1643 1641 1633 1631 1626 1616 1612 1605 1599 1594 1589 1584 1580 1575 1571 1571 1562 1558 1551 1549 1545 1540 1536 1527 1523 1520 1517 1512 1507 1506 1502 1496 1490 1487 1486 1482 1479 1477 1473 1460 1456 1451 1451 1445 1438 1433 1431 1417 1413 1408 1402 1398 1394 1390 1383 1375 1372 1364 1362 1361 1359 1356 1353 1353 1353 1349 1346 1343 1343 1340 1339 1338 1339 1330 1327 1323 1317 1308 1301 1286 1295 1311 1310 1297 1272 1259 1251 1226 1232 1229 1209 1189 1173 1159 1159 1148 1145 1145 1146 1147 1150 1143 1144 1143 1135 1145 1142 1137 1133 1134 1138 1135 1131 1130 1130 1131 1129 1128 1123 1127 1127 1125 1124 1125 1122 1122 1123 1123 1121 1119 1120 1118 1119 1118 1118 1119 1118 1119 1118 1119 1119 1119 1120 1116 1117 1117 1117 -32768 -32768
-32768 -32768 -32768 3246 3262 3268 3277 3285 3294 3296 3301 3306 3313 3320 3329 3332 3339 3339 3352 3369 3387 3408 3423 3436 3433 3428 3418 3416 3418 3431 3455 3469 3484 3505 3539 3574 3613 3650 3720 3751 3757 3684 3596 3532 3532 3478 3452 3457 3475 3496 3507 3511 3522 3536 3576 3596 3613 3621 3622 3621 3625 3636 3659 3685 3722 3767 3778 3788 3787 3775 3775 3680 3660 3644 3643 3644 3648 3646 3691 3833 3888 3928 3956 3971 3977 3972 3943 3928 3932 3908 3865 3893 3913 4013 4058 4100 4100 4124 4120 4090 4042 3989 3905 3888 3888 3900 4034 4012 3993 3987 3991 3999 4012 4009 4017 4005 3971 3758 3693 3642 3594 3597 3597 3572 3554 3528 3474 3464 3462 3458 3445 3431 3403 3388 3342 3298 3250 3200 3147 3100 3066 2971 2933 2898 2855 2824 2784 2753 2753 2726 2688 2666 2641 2624 2600 2586 2529 2509 2485 2465 2450 2440 2433 2427 2421 2400 2395 2396 2399 2395 2394 2382 2350 2266 2270 2270 2293 2322 2347 2348 2355 2359 2358 2351 2326 2289 2242 2201 2182 2159 2136 2109 2076 2042 2028 2022 2007 1974 1961 1951 1942 1942 1930 1918 1911 1899 1881 1873 1862 1855 1847 1839 1831 1814 1811 1805 1800 1793 1785 1779 1771 1756 1749 1742 1737 1730 1724 1724 1717 1710 1697 1689 1685 1680 1673 1667 1661 1647 1643 1640 1635 1629 1624 1619 1613 1601 1596 1591 1585 1584 1576 1571 1564 1564 1563 1560 1554 1553 1548 1543 1542 1532 1527 1524 1520 1518 1513 1507 1506 1498 1497 1487 1486 1482 1479 1477 1467 1460 1456 1456 1451 1446 1440 1435 1428 1416 1412 1407 1401 1398 1395 1388 1381 1377 1376 1371 1367 1364 1355 1355 1354 1349 1352 1348 1349 1349 1343 1341 1338 1333 1330 1329 1336 1334 1314 1295 1283 1268 1264 1264 1260 1249 1235 1222 1209 1201 1206 1217 1211 1182 1162 1162 1155 1150 1147 1146 1149 1149 1151 1151 1148 1146 1145 1145 1138 1133 1134 1134 1136 1135 1133 1133 1129 1130 1129 1128 1128 1128 1128 1124 1124 1124 1123 1122 1123 1123 1121 1119 1120 1118 1119 1118 1119 1120 1119 1120 1119 1118 1120 1118 1115 1116 1119 1118 1118 -32768 -32768
-32768 -32768 -32768 3291 3289 3282 3275 3282 3291 3301 3310 3319 3324 3330 3342 3351 3357 3357 3373 3391 3411 3427 3450 3436 3433 3428 3418 3416 3418 3431 3462 3473 3487 3505 3541 3575 3610 3650 3723 3752 3758 3722 3661 3661 3569 3498 3451 3455 3470 3490 3507 3513 3521 3535 3577 3584 3591 3596 3605 3616 3625 3629 3646 3676 3717 3756 3811 3831 3897 3897 3911 3883 3839 3675 3668 3673 3678 3683 3807 3853 3893 3907 3913 3914 3911 3902 3876 3853 3860 3833 3830 3836 3866 3935 3992 4027 4027 4056 4051 4090 4042 3989 3905 3888 3888 3900 3914 3981 3966 3956 3953 3954 3960 3971 3974 3967 3912 3777 3712 3653 3564 3532 3532 3511 3486 3452 3428 3427 3423 3414 3397 3379 3358 3342 3277 3241 3190 3135 3095 3058 3018 2936 2896 2865 2810 2773 2746 2706 2706 2677 2607 2588 2567 2549 2537 2522 2509 2490 2476 2465 2448 2441 2434 2426 2424 2421 2429 2434 2439 2431 2427 2396 2347 2289 2289 2318 2348 2369 2388 2348 2355 2361 2358 2351 2326 2289 2253 2229 2234 2202 2167 2126 2080 2050 2049 2033 2016 1985 1973 1964 1964 1951 1937 1922 1910 1890 1879 1873 1866 1857 1851 1844 1838 1821 1819 1814 1804 1796 1789 1780 1772 1759 1750 1743 1738 1728 1728 1720 1714 1703 1698 1692 1686 1679 1674 1667 1660 1649 1646 1638 1634 1627 1621 1617 1613 1602 1596 1590 1587 1586 1582 1578 1569 1569 1565 1562 1557 1552 1549 1544 1544 1538 1532 1524 1520 1518 1513 1507 1506 1498 1497 1492 1487 1484 1484 1480 1473 1463 1462 1462 1462 1457 1444 1435 1428 1413 1415 1415 1403 1400 1395 1388 1387 1379 1377 1374 1371 1364 1357 1362 1373 1367 1359 1352 1350 1350 1348 1341 1338 1333 1334 1331 1335 1331 1319 1309 1298 1273 1274 1262 1258 1262 1261 1265 1276 1257 1234 1204 1181 1171 1162 1162 1158 1157 1154 1153 1155 1154 1151 1150 1151 1146 1144 1145 1139 1135 1133 1134 1133 1134 1131 1128 1130 1131 1129 1128 1128 1128 1128 1124 1124 1124 1123 1122 1121 1123 1122 1118 1118 1119 1118 1119 1121 1118 1117 1119 1121 1120 1122 1117 1113 1116 1121 1121 1122 -32768 -32768
-32768 -32768 -32768 3302 3298 3290 3275 3280 3291 3301 3310 3319 3329 3339 3350 3351 3357 3357 3373 3391 3411 3427 3450 3458 3455 3441 3422 3415 3416 3424 3451 3471 3486 3503 3535 3572 3608 3644 3710 3738 3752 3729 3671 3671 3599 3530 3467 3463 3469 3491 3500 3507 3520 3534 3567 3572 3570 3564 3567 3566 3571 3608 3640 3678 3721 3761 3811 3833 4030 4030 4074 4076 3924 3877 3687 3692 3697 3711 3834 3851 3862 3861 3857 3853 3836 3816 3811 3807 3807 3802 3804 3836 3866 3935 3992 3992 4027 4056 4051 4023 3977 3922 3834 3815 3811 3818 3829 3840 3934 3925 3925 3896 3940 3937 3928 3908 3867 3798 3749 3666 3611 3611 3508 3484 3447 3429 3422 3392 3360 3337 3321 3309 3291 3236 3208 3187 3152 3120 3074 3042 2996 2916 2851 2799 2757 2730 2703 2667 2667 2641 2592 2578 2556 2541 2533 2516 2508 2494 2481 2475 2466 2468 2467 2458 2458 2463 2471 2482 2482 2471 2427 2396 2347 2289 2289 2318 2348 2369 2388 2405 2416 2415 2398 2365 2328 2295 2276 2282 2294 2218 2164 2118 2080 2079 2074 2059 2044 2023 2009 1990 1990 1973 1954 1930 1912 1892 1892 1888 1880 1870 1865 1857 1850 1833 1824 1814 1805 1795 1785 1776 1772 1759 1746 1741 1736 1727 1727 1719 1714 1704 1697 1690 1684 1680 1675 1669 1664 1649 1644 1637 1634 1629 1623 1617 1612 1602 1598 1596 1592 1591 1588 1582 1582 1572 1569 1562 1557 1552 1549 1544 1544 1538 1532 1529 1525 1521 1518 1512 1510 1500 1500 1498 1496 1494 1487 1482 1475 1491 1491 1508 1509 1499 1489 1478 1460 1417 1411 1408 1400 1399 1397 1393 1389 1380 1380 1382 1379 1382 1388 1396 1389 1374 1368 1364 1362 1362 1355 1350 1350 1349 1350 1352 1356 1361 1350 1335 1285 1282 1277 1267 1270 1270 1277 1293 1313 1298 1272 1247 1222 1205 1187 1187 1171 1156 1157 1156 1156 1156 1153 1151 1147 1145 1144 1145 1140 1135 1133 1134 1133 1134 1131 1128 1130 1131 1130 1126 1129 1129 1127 1125 1126 1124 1123 1122 1123 1124 1122 1120 1119 1122 1122 1121 1122 1120 1118 1120 1122 1119 1118 1116 1119 1118 1121 1121 1122 -32768 -32768
-32768 -32768 -32768 3296 3294 3291 3288 3297 3291 3301 3310 3319 3329 3343 3350 3361 3361 3374 3387 3404 3420 3434 3470 3485 3492 3482 3449 3425 3415 3413 3440 3458 3476 3497 3534 3569 3600 3660 3688 3710 3727 3743 3743 3741 3709 3640 3530 3506 3498 3506 3516 3522 3529 3534 3553 3554 3548 3543 3547 3553 3568 3613 3654 3689 3733 3771 3794 3923 4021 4021 4040 4030 3989 3952 3912 3876 3852 3864 3866 3820 3811 3783 3769 3853 3836 3816 3811 3807 3807 3802 3804 3809 3834 3928 3964 3964 3991 4004 3997 3974 3930 3872 3774 3750 3740 3740 3746 3754 3764 3785 3799 3816 3755 3774 3845 3812 3765 3724 3702 3670 3650 3650 3624 3585 3534 3489 3400 3368 3330 3301 3284 3262 3237 3194 3164 3137 3112 3064 3010 2976 2912 2809 2776 2761 2737 2721 2700 2700 2666 2631 2578 2568 2560 2551 2545 2532 2530 2528 2524 2519 2511 2525 2467 2458 2458 2463 2471 2482 2482 2471 2440 2392 2346 2346 2320 2357 2393 2413 2437 2460 2486 2447 2416 2381 2349 2321 2317 2314 2287 2162 2137 2143 2171 2183 2172 2153 2134 2107 2077 2049 2049 2025 1998 1967 1947 1912 1901 1897 1890 1879 1871 1860 1853 1833 1823 1813 1802 1794 1787 1777 1763 1758 1750 1742 1736 1728 1728 1722 1717 1701 1695 1690 1682 1679 1675 1668 1663 1653 1646 1639 1633 1632 1627 1621 1613 1611 1598 1596 1592 1591 1588 1582 1582 1572 1569 1565 1560 1556 1551 1549 1545 1539 1535 1533 1528 1527 1521 1517 1510 1506 1504 1501 1499 1496 1490 1485 1503 1542 1584 1608 1609 1596 1573 1544 1516 1445 1421 1411 1409 1405 1399 1397 1394 1390 1406 1401 1397 1397 1394 1403 1387 1380 1374 1370 1370 1365 1357 1359 1355 1357 1366 1372 1367 1358 1348 1335 1304 1293 1275 1273 1277 1285 1298 1317 1329 1316 1299 1289 1283 1266 1266 1225 1198 1163 1160 1157 1156 1156 1153 1151 1147 1145 1144 1145 1140 1140 1139 1135 1135 1132 1129 1128 1130 1134 1130 1126 1129 1129 1128 1125 1123 1124 1124 1124 1122 1122 1121 1119 1120 1120 1122 1119 1120 1120 1118 1116 1116 1114 1118 1119 1115 1113 1116 1116 1117 -32768 -32768
-32768 -32768 -32768 3296 3294 3291 3288 3297 3304 3308 3311 3320 3330 3344 3354 3365 3365 3377 3391 3398 3415 3435 3491 3517 3539 3540 3522 3482 3438 3422 3434 3447 3468 3499 3531 3566 3603 3660 3684 3709 3726 3743 3743 3753 3741 3686 3573 3537 3524 3526 3532 3542 3558 3567 3557 3544 3538 3543 3553 3567 3589 3630 3669 3709 3749 3779 3882 3980 3980 3995 4018 4026 4030 4030 4025 3980 3852 3864 3866 3820 3811 3783 3769 3780 3802 3792 3789 3792 3801 3805 3824 3838 3864 3913 3913 3937 3952 3937 3949 3938 3932 3806 3759 3726 3703 3685 3668 3656 3655 3647 3646 3657 3674 3693 3709 3759 3721 3674 3650 3620 3601 3601 3582 3522 3479 3388 3348 3302 3265 3243 3226 3205 3181 3132 3094 3058 3009 2968 2933 2896 2864 2806 2799 2793 2779 2750 2720 2720 2687 2597 2573 2569 2572 2572 2587 2532 2530 2528 2524 2519 2511 2525 2539 2533 2508 2515 2539 2558 2542 2489 2438 2378 2338 2338 2411 2446 2457 2484 2524 2554 2548 2494 2468 2449 2425 2396 2344 2294 2249 2169 2174 2194 2225 2238 2222 2200 2188 2150 2112 2112 2072 2039 2007 1983 1962 1928 1913 1906 1891 1878 1875 1864 1855 1835 1824 1813 1803 1797 1791 1782 1765 1757 1753 1746 1738 1738 1731 1724 1717 1704 1698 1690 1682 1680 1674 1672 1666 1655 1646 1639 1633 1632 1627 1621 1613 1611 1606 1605 1596 1592 1590 1590 1586 1578 1574 1568 1564 1563 1557 1554 1552 1550 1544 1544 1538 1532 1530 1526 1520 1516 1512 1506 1504 1499 1495 1493 1561 1609 1609 1632 1630 1612 1585 1558 1541 1492 1454 1431 1419 1411 1418 1421 1408 1397 1400 1411 1417 1409 1404 1407 1402 1399 1389 1383 1383 1375 1363 1359 1356 1367 1373 1373 1367 1358 1341 1326 1299 1292 1287 1282 1282 1278 1289 1305 1314 1309 1294 1289 1283 1266 1266 1225 1198 1163 1160 1157 1158 1157 1157 1154 1153 1150 1146 1147 1143 1140 1139 1135 1134 1132 1130 1131 1131 1131 1130 1128 1128 1125 1126 1125 1123 1125 1122 1121 1121 1121 1122 1121 1120 1120 1120 1118 1117 1117 1118 1120 1116 1117 1119 1116 1117 1115 1115 1117 1120 -32768 -32768
-32768 -32768 -32768 3290 3294 3304 3307 3312 3322 3325 3331 3337 3343 3358 3364 3364 3373 3387 3403 3419 3439 3461 3524 3551 3577 3584 3572 3538 3492 3450 3447 3452 3468 3491 3534 3573 3615 3674 3696 3722 3745 3745 3759 3778 3783 3757 3632 3588 3564 3558 3558 3569 3576 3590 3587 3572 3562 3568 3585 3598 3611 3681 3708 3736 3767 3780 3938 3951 3951 3995 4018 4026 4030 4030 4025 3980 3942 3873 3807 3771 3749 3738 3761 3783 3805 3826 3838 3855 3875 3889 3902 3900 3904 3916 3916 3914 3914 3931 3958 3991 3993 3837 3800 3774 3752 3729 3704 3683 3665 3621 3600 3595 3602 3617 3631 3699 3670 3620 3595 3564 3564 3527 3494 3458 3430 3350 3288 3223 3198 3187 3168 3158 3153 3099 3069 3033 3007 2983 2965 2947 2961 2922 2901 2858 2815 2780 2780 2720 2687 2597 2573 2569 2572 2572 2587 2590 2586 2580 2579 2707 2690 2684 2648 2613 2596 2665 2638 2569 2518 2468 2420 2388 2433 2433 2464 2475 2489 2514 2556 2590 2592 2544 2514 2484 2449 2404 2343 2291 2242 2193 2215 2241 2274 2284 2270 2248 2219 2174 2130 2130 2094 2056 2030 2008 1992 1944 1921 1905 1898 1891 1877 1865 1855 1834 1824 1817 1808 1799 1793 1785 1770 1760 1753 1743 1737 1737 1731 1725 1718 1703 1698 1690 1682 1680 1674 1672 1666 1655 1648 1645 1638 1633 1630 1626 1623 1620 1617 1610 1609 1605 1595 1595 1591 1591 1586 1582 1578 1570 1568 1563 1561 1555 1551 1549 1544 1538 1535 1531 1524 1522 1516 1512 1509 1503 1501 1499 1556 1556 1606 1644 1638 1620 1595 1579 1577 1527 1477 1433 1418 1416 1421 1421 1408 1402 1401 1408 1409 1406 1407 1405 1417 1406 1399 1393 1393 1382 1368 1361 1356 1351 1350 1345 1339 1323 1305 1306 1286 1277 1287 1282 1282 1278 1289 1305 1314 1309 1294 1288 1295 1289 1289 1263 1236 1219 1208 1193 1172 1168 1165 1160 1152 1151 1149 1149 1146 1143 1141 1137 1133 1132 1132 1129 1129 1130 1129 1126 1126 1124 1124 1125 1125 1121 1121 1122 1123 1122 1121 1121 1120 1121 1120 1121 1118 1118 1119 1120 1121 1119 1119 1117 1116 1116 1116 1115 1118 -32768 -32768
-32768 -32768 -32768 3289 3293 3307 3314 3325 3333 3341 3346 3347 3348 3363 3375 3375 3387 3400 3417 3432 3461 3492 3555 3581 3611 3633 3632 3605 3569 3492 3473 3475 3482 3503 3560 3600 3640 3705 3730 3752 3776 3776 3789 3807 3821 3828 3739 3694 3645 3622 3608 3614 3614 3615 3610 3609 3611 3619 3626 3642 3673 3681 3708 3736 3767 3780 3938 3924 3938 3957 3988 3958 3947 3929 3903 3869 3795 3735 3732 3739 3757 3771 3791 3815 3842 3860 3871 3890 3911 3927 3936 3934 3923 3923 3941 3936 3934 3951 3975 3993 3952 3864 3842 3833 3820 3798 3769 3738 3703 3620 3579 3554 3546 3551 3561 3571 3602 3562 3538 3516 3516 3480 3434 3419 3393 3322 3230 3174 3162 3153 3150 3159 3171 3125 3100 3081 3069 3057 3068 2947 2961 2922 2901 2858 2803 2766 2766 2728 2691 2645 2649 2655 2671 2692 2725 2755 2785 2818 2826 2847 2813 2746 2679 2659 2715 2691 2617 2553 2510 2458 2431 2433 2433 2484 2498 2510 2535 2561 2601 2627 2644 2589 2543 2498 2451 2391 2331 2277 2231 2232 2272 2302 2329 2336 2321 2294 2230 2192 2192 2154 2120 2092 2065 2038 2019 1964 1943 1918 1903 1890 1877 1867 1855 1833 1823 1817 1809 1799 1793 1784 1770 1760 1753 1743 1737 1737 1732 1724 1714 1704 1698 1691 1687 1680 1677 1670 1661 1659 1654 1651 1646 1643 1639 1635 1625 1622 1618 1615 1613 1607 1597 1597 1599 1594 1591 1587 1583 1576 1573 1571 1567 1562 1557 1554 1553 1546 1540 1538 1531 1526 1522 1519 1514 1510 1504 1501 1536 1536 1582 1616 1627 1632 1621 1601 1562 1528 1481 1440 1426 1429 1440 1443 1424 1414 1406 1404 1403 1401 1401 1398 1400 1395 1391 1391 1386 1376 1365 1351 1335 1351 1350 1345 1339 1323 1305 1306 1292 1284 1278 1271 1269 1263 1260 1250 1244 1250 1245 1230 1226 1226 1237 1239 1213 1203 1194 1190 1177 1169 1165 1161 1153 1152 1150 1147 1143 1143 1141 1137 1133 1131 1130 1131 1130 1130 1129 1126 1126 1127 1123 1122 1122 1121 1124 1122 1122 1122 1123 1120 1120 1121 1120 1120 1118 1119 1118 1116 1117 1116 1117 1117 1117 1114 1114 1114 1115 -32768 -32768
